-11.0,-11.1,-11.1,-11.2,-11.2,-11.2,-11.3,-11.3,-11.3,-11.4,-11.4,-11.5,-11.5,-11.5,-11.6,-11.6,-11.6,-11.7,-11.7,-11.7,-11.8,-11.8,-11.9,-11.9,-11.9,-12.0,-12.0,-12.0,-12.1,-12.1,-12.1,-12.1,-12.2,-12.2,-12.2,-12.3,-12.3,-12.3,-12.4,-12.4,-12.4,-12.5,-12.5,-12.5,-12.5,-12.6,-12.6,-12.6,-12.7,-12.7,-12.7,-12.7,-12.8,-12.8,-12.8,-12.8,-12.9,-12.9,-12.9,-12.9,-13.0,-13.0,-13.0,-13.0,-13.1,-13.1,-13.1,-13.1,-13.2,-13.2,-13.2,-13.2,-13.2,-13.3,-13.3,-13.3,-13.3,-13.3,-13.4,-13.4,-13.4,-13.4,-13.4,-13.5,-13.5,-13.5,-13.5,-13.5,-13.5,-13.5,-13.6,-13.6,-13.6,-13.6,-13.6,-13.6,-13.6,-13.7,-13.7,-13.7,-13.7,-13.7,-13.7,-13.7,-13.7,-13.7,-13.8,-13.8,-13.8,-13.8,-13.8,-13.8,-13.8,-13.8,-13.8,-13.8,-13.8,-13.8,-13.8,-13.8,-13.8,-13.8,-13.8,-13.8,-13.8,-13.9,-13.9,-13.9,-13.9,-13.9,-13.9,-13.8,-13.8,-13.8,-13.8,-13.8,-13.8,-13.8,-13.8,-13.8,-13.8,-13.8,-13.8,-13.8,-13.8,-13.8,-13.8,-13.8,-13.8,-13.8,-13.7,-13.7,-13.7,-13.7,-13.7,-13.7,-13.7,-13.7,-13.7,-13.6,-13.6,-13.6,-13.6,-13.6,-13.6,-13.6,-13.5,-13.5,-13.5,-13.5,-13.5,-13.5,-13.5,-13.4,-13.4,-13.4,-13.4,-13.4,-13.3,-13.3,-13.3,-13.3,-13.3,-13.2,-13.2,-13.2,-13.2,-13.2,-13.1,-13.1,-13.1,-13.1,-13.0,-13.0,-13.0,-13.0,-12.9,-12.9,-12.9,-12.9,-12.8,-12.8,-12.8,-12.8,-12.7,-12.7,-12.7,-12.7,-12.6,-12.6,-12.6,-12.5,-12.5,-12.5,-12.5,-12.4,-12.4,-12.4,-12.3,-12.3,-12.3,-12.2,-12.2,-12.2,-12.1,-12.1,-12.1,-12.1,-12.0,-12.0,-12.0,-11.9,-11.9,-11.9,-11.8,-11.8,-11.7,-11.7,-11.7,-11.6,-11.6,-11.6,-11.5,-11.5,-11.5,-11.4,-11.4,-11.3,-11.3,-11.3,-11.2,-11.2,-11.2,-11.1,-11.1,-11.0
-10.6,-10.7,-10.7,-10.8,-10.8,-10.8,-10.9,-10.9,-10.9,-11.0,-11.0,-11.0,-11.1,-11.1,-11.1,-11.2,-11.2,-11.3,-11.3,-11.3,-11.4,-11.4,-11.4,-11.5,-11.5,-11.5,-11.6,-11.6,-11.6,-11.6,-11.7,-11.7,-11.7,-11.8,-11.8,-11.8,-11.9,-11.9,-11.9,-11.9,-12.0,-12.0,-12.0,-12.1,-12.1,-12.1,-12.1,-12.2,-12.2,-12.2,-12.3,-12.3,-12.3,-12.3,-12.4,-12.4,-12.4,-12.4,-12.5,-12.5,-12.5,-12.5,-12.5,-12.6,-12.6,-12.6,-12.6,-12.7,-12.7,-12.7,-12.7,-12.7,-12.8,-12.8,-12.8,-12.8,-12.8,-12.9,-12.9,-12.9,-12.9,-12.9,-12.9,-13.0,-13.0,-13.0,-13.0,-13.0,-13.0,-13.1,-13.1,-13.1,-13.1,-13.1,-13.1,-13.1,-13.2,-13.2,-13.2,-13.2,-13.2,-13.2,-13.2,-13.2,-13.2,-13.2,-13.3,-13.3,-13.3,-13.3,-13.3,-13.3,-13.3,-13.3,-13.3,-13.3,-13.3,-13.3,-13.3,-13.3,-13.3,-13.3,-13.3,-13.3,-13.3,-13.3,-13.3,-13.4,-13.4,-13.3,-13.3,-13.3,-13.3,-13.3,-13.3,-13.3,-13.3,-13.3,-13.3,-13.3,-13.3,-13.3,-13.3,-13.3,-13.3,-13.3,-13.3,-13.3,-13.3,-13.3,-13.2,-13.2,-13.2,-13.2,-13.2,-13.2,-13.2,-13.2,-13.2,-13.2,-13.1,-13.1,-13.1,-13.1,-13.1,-13.1,-13.1,-13.0,-13.0,-13.0,-13.0,-13.0,-13.0,-12.9,-12.9,-12.9,-12.9,-12.9,-12.9,-12.8,-12.8,-12.8,-12.8,-12.8,-12.7,-12.7,-12.7,-12.7,-12.7,-12.6,-12.6,-12.6,-12.6,-12.5,-12.5,-12.5,-12.5,-12.5,-12.4,-12.4,-12.4,-12.4,-12.3,-12.3,-12.3,-12.3,-12.2,-12.2,-12.2,-12.1,-12.1,-12.1,-12.1,-12.0,-12.0,-12.0,-11.9,-11.9,-11.9,-11.9,-11.8,-11.8,-11.8,-11.7,-11.7,-11.7,-11.6,-11.6,-11.6,-11.6,-11.5,-11.5,-11.5,-11.4,-11.4,-11.4,-11.3,-11.3,-11.3,-11.2,-11.2,-11.1,-11.1,-11.1,-11.0,-11.0,-11.0,-10.9,-10.9,-10.9,-10.8,-10.8,-10.8,-10.7,-10.7,-10.6
-10.2,-10.3,-10.3,-10.3,-10.4,-10.4,-10.5,-10.5,-10.5,-10.6,-10.6,-10.6,-10.7,-10.7,-10.7,-10.8,-10.8,-10.8,-10.9,-10.9,-10.9,-11.0,-11.0,-11.0,-11.1,-11.1,-11.1,-11.1,-11.2,-11.2,-11.2,-11.3,-11.3,-11.3,-11.4,-11.4,-11.4,-11.4,-11.5,-11.5,-11.5,-11.6,-11.6,-11.6,-11.6,-11.7,-11.7,-11.7,-11.7,-11.8,-11.8,-11.8,-11.8,-11.9,-11.9,-11.9,-11.9,-12.0,-12.0,-12.0,-12.0,-12.1,-12.1,-12.1,-12.1,-12.1,-12.2,-12.2,-12.2,-12.2,-12.2,-12.3,-12.3,-12.3,-12.3,-12.3,-12.4,-12.4,-12.4,-12.4,-12.4,-12.4,-12.5,-12.5,-12.5,-12.5,-12.5,-12.5,-12.6,-12.6,-12.6,-12.6,-12.6,-12.6,-12.6,-12.6,-12.7,-12.7,-12.7,-12.7,-12.7,-12.7,-12.7,-12.7,-12.7,-12.7,-12.8,-12.8,-12.8,-12.8,-12.8,-12.8,-12.8,-12.8,-12.8,-12.8,-12.8,-12.8,-12.8,-12.8,-12.8,-12.8,-12.8,-12.8,-12.8,-12.8,-12.8,-12.8,-12.8,-12.8,-12.8,-12.8,-12.8,-12.8,-12.8,-12.8,-12.8,-12.8,-12.8,-12.8,-12.8,-12.8,-12.8,-12.8,-12.8,-12.8,-12.8,-12.8,-12.8,-12.8,-12.7,-12.7,-12.7,-12.7,-12.7,-12.7,-12.7,-12.7,-12.7,-12.7,-12.6,-12.6,-12.6,-12.6,-12.6,-12.6,-12.6,-12.6,-12.5,-12.5,-12.5,-12.5,-12.5,-12.5,-12.4,-12.4,-12.4,-12.4,-12.4,-12.4,-12.3,-12.3,-12.3,-12.3,-12.3,-12.2,-12.2,-12.2,-12.2,-12.2,-12.1,-12.1,-12.1,-12.1,-12.1,-12.0,-12.0,-12.0,-12.0,-11.9,-11.9,-11.9,-11.9,-11.8,-11.8,-11.8,-11.8,-11.7,-11.7,-11.7,-11.7,-11.6,-11.6,-11.6,-11.6,-11.5,-11.5,-11.5,-11.4,-11.4,-11.4,-11.4,-11.3,-11.3,-11.3,-11.2,-11.2,-11.2,-11.1,-11.1,-11.1,-11.1,-11.0,-11.0,-11.0,-10.9,-10.9,-10.9,-10.8,-10.8,-10.8,-10.7,-10.7,-10.7,-10.6,-10.6,-10.6,-10.5,-10.5,-10.5,-10.4,-10.4,-10.3,-10.3,-10.3,-10.2
-9.84,-9.87,-9.91,-9.94,-9.98,-10.0,-10.0,-10.1,-10.1,-10.1,-10.2,-10.2,-10.2,-10.3,-10.3,-10.3,-10.4,-10.4,-10.4,-10.5,-10.5,-10.5,-10.6,-10.6,-10.6,-10.7,-10.7,-10.7,-10.7,-10.8,-10.8,-10.8,-10.9,-10.9,-10.9,-10.9,-11.0,-11.0,-11.0,-11.1,-11.1,-11.1,-11.1,-11.2,-11.2,-11.2,-11.2,-11.3,-11.3,-11.3,-11.3,-11.4,-11.4,-11.4,-11.4,-11.4,-11.5,-11.5,-11.5,-11.5,-11.6,-11.6,-11.6,-11.6,-11.6,-11.7,-11.7,-11.7,-11.7,-11.7,-11.8,-11.8,-11.8,-11.8,-11.8,-11.9,-11.9,-11.9,-11.9,-11.9,-11.9,-12.0,-12.0,-12.0,-12.0,-12.0,-12.0,-12.0,-12.1,-12.1,-12.1,-12.1,-12.1,-12.1,-12.1,-12.2,-12.2,-12.2,-12.2,-12.2,-12.2,-12.2,-12.2,-12.2,-12.2,-12.3,-12.3,-12.3,-12.3,-12.3,-12.3,-12.3,-12.3,-12.3,-12.3,-12.3,-12.3,-12.3,-12.3,-12.3,-12.3,-12.3,-12.3,-12.3,-12.3,-12.3,-12.3,-12.3,-12.3,-12.3,-12.3,-12.3,-12.3,-12.3,-12.3,-12.3,-12.3,-12.3,-12.3,-12.3,-12.3,-12.3,-12.3,-12.3,-12.3,-12.3,-12.3,-12.3,-12.3,-12.3,-12.3,-12.2,-12.2,-12.2,-12.2,-12.2,-12.2,-12.2,-12.2,-12.2,-12.2,-12.1,-12.1,-12.1,-12.1,-12.1,-12.1,-12.1,-12.0,-12.0,-12.0,-12.0,-12.0,-12.0,-12.0,-11.9,-11.9,-11.9,-11.9,-11.9,-11.9,-11.8,-11.8,-11.8,-11.8,-11.8,-11.7,-11.7,-11.7,-11.7,-11.7,-11.6,-11.6,-11.6,-11.6,-11.6,-11.5,-11.5,-11.5,-11.5,-11.4,-11.4,-11.4,-11.4,-11.4,-11.3,-11.3,-11.3,-11.3,-11.2,-11.2,-11.2,-11.2,-11.1,-11.1,-11.1,-11.1,-11.0,-11.0,-11.0,-10.9,-10.9,-10.9,-10.9,-10.8,-10.8,-10.8,-10.7,-10.7,-10.7,-10.7,-10.6,-10.6,-10.6,-10.5,-10.5,-10.5,-10.4,-10.4,-10.4,-10.3,-10.3,-10.3,-10.2,-10.2,-10.2,-10.1,-10.1,-10.1,-10.0,-10.0,-9.98,-9.94,-9.91,-9.87,-9.84
-9.44,-9.47,-9.51,-9.54,-9.57,-9.61,-9.64,-9.67,-9.7,-9.74,-9.77,-9.8,-9.83,-9.86,-9.89,-9.93,-9.96,-9.99,-10.0,-10.0,-10.1,-10.1,-10.1,-10.2,-10.2,-10.2,-10.3,-10.3,-10.3,-10.3,-10.4,-10.4,-10.4,-10.4,-10.5,-10.5,-10.5,-10.5,-10.6,-10.6,-10.6,-10.7,-10.7,-10.7,-10.7,-10.8,-10.8,-10.8,-10.8,-10.8,-10.9,-10.9,-10.9,-10.9,-11.0,-11.0,-11.0,-11.0,-11.0,-11.1,-11.1,-11.1,-11.1,-11.1,-11.2,-11.2,-11.2,-11.2,-11.2,-11.3,-11.3,-11.3,-11.3,-11.3,-11.4,-11.4,-11.4,-11.4,-11.4,-11.4,-11.5,-11.5,-11.5,-11.5,-11.5,-11.5,-11.5,-11.6,-11.6,-11.6,-11.6,-11.6,-11.6,-11.6,-11.6,-11.7,-11.7,-11.7,-11.7,-11.7,-11.7,-11.7,-11.7,-11.7,-11.7,-11.8,-11.8,-11.8,-11.8,-11.8,-11.8,-11.8,-11.8,-11.8,-11.8,-11.8,-11.8,-11.8,-11.8,-11.8,-11.8,-11.8,-11.8,-11.8,-11.8,-11.8,-11.8,-11.8,-11.8,-11.8,-11.8,-11.8,-11.8,-11.8,-11.8,-11.8,-11.8,-11.8,-11.8,-11.8,-11.8,-11.8,-11.8,-11.8,-11.8,-11.8,-11.8,-11.8,-11.8,-11.8,-11.8,-11.7,-11.7,-11.7,-11.7,-11.7,-11.7,-11.7,-11.7,-11.7,-11.7,-11.6,-11.6,-11.6,-11.6,-11.6,-11.6,-11.6,-11.6,-11.5,-11.5,-11.5,-11.5,-11.5,-11.5,-11.5,-11.4,-11.4,-11.4,-11.4,-11.4,-11.4,-11.3,-11.3,-11.3,-11.3,-11.3,-11.2,-11.2,-11.2,-11.2,-11.2,-11.1,-11.1,-11.1,-11.1,-11.1,-11.0,-11.0,-11.0,-11.0,-11.0,-10.9,-10.9,-10.9,-10.9,-10.8,-10.8,-10.8,-10.8,-10.8,-10.7,-10.7,-10.7,-10.7,-10.6,-10.6,-10.6,-10.5,-10.5,-10.5,-10.5,-10.4,-10.4,-10.4,-10.4,-10.3,-10.3,-10.3,-10.3,-10.2,-10.2,-10.2,-10.1,-10.1,-10.1,-10.0,-10.0,-9.99,-9.96,-9.93,-9.89,-9.86,-9.83,-9.8,-9.77,-9.74,-9.7,-9.67,-9.64,-9.61,-9.57,-9.54,-9.51,-9.47,-9.44
-9.04,-9.07,-9.11,-9.14,-9.17,-9.2,-9.23,-9.26,-9.29,-9.32,-9.36,-9.39,-9.42,-9.45,-9.48,-9.5,-9.53,-9.56,-9.59,-9.62,-9.65,-9.68,-9.71,-9.73,-9.76,-9.79,-9.82,-9.84,-9.87,-9.9,-9.92,-9.95,-9.98,-10.0,-10.0,-10.1,-10.1,-10.1,-10.1,-10.2,-10.2,-10.2,-10.2,-10.2,-10.3,-10.3,-10.3,-10.3,-10.4,-10.4,-10.4,-10.4,-10.5,-10.5,-10.5,-10.5,-10.5,-10.6,-10.6,-10.6,-10.6,-10.6,-10.7,-10.7,-10.7,-10.7,-10.7,-10.8,-10.8,-10.8,-10.8,-10.8,-10.8,-10.9,-10.9,-10.9,-10.9,-10.9,-10.9,-11.0,-11.0,-11.0,-11.0,-11.0,-11.0,-11.0,-11.1,-11.1,-11.1,-11.1,-11.1,-11.1,-11.1,-11.1,-11.2,-11.2,-11.2,-11.2,-11.2,-11.2,-11.2,-11.2,-11.2,-11.2,-11.2,-11.3,-11.3,-11.3,-11.3,-11.3,-11.3,-11.3,-11.3,-11.3,-11.3,-11.3,-11.3,-11.3,-11.3,-11.3,-11.3,-11.3,-11.3,-11.3,-11.3,-11.3,-11.3,-11.3,-11.3,-11.3,-11.3,-11.3,-11.3,-11.3,-11.3,-11.3,-11.3,-11.3,-11.3,-11.3,-11.3,-11.3,-11.3,-11.3,-11.3,-11.3,-11.3,-11.3,-11.3,-11.3,-11.3,-11.2,-11.2,-11.2,-11.2,-11.2,-11.2,-11.2,-11.2,-11.2,-11.2,-11.2,-11.1,-11.1,-11.1,-11.1,-11.1,-11.1,-11.1,-11.1,-11.0,-11.0,-11.0,-11.0,-11.0,-11.0,-11.0,-10.9,-10.9,-10.9,-10.9,-10.9,-10.9,-10.8,-10.8,-10.8,-10.8,-10.8,-10.8,-10.7,-10.7,-10.7,-10.7,-10.7,-10.6,-10.6,-10.6,-10.6,-10.6,-10.5,-10.5,-10.5,-10.5,-10.5,-10.4,-10.4,-10.4,-10.4,-10.3,-10.3,-10.3,-10.3,-10.2,-10.2,-10.2,-10.2,-10.2,-10.1,-10.1,-10.1,-10.1,-10.0,-10.0,-9.98,-9.95,-9.92,-9.9,-9.87,-9.84,-9.82,-9.79,-9.76,-9.73,-9.71,-9.68,-9.65,-9.62,-9.59,-9.56,-9.53,-9.5,-9.48,-9.45,-9.42,-9.39,-9.36,-9.32,-9.29,-9.26,-9.23,-9.2,-9.17,-9.14,-9.11,-9.07,-9.04
-8.64,-8.67,-8.7,-8.73,-8.76,-8.79,-8.82,-8.85,-8.88,-8.91,-8.94,-8.97,-9.0,-9.03,-9.06,-9.08,-9.11,-9.14,-9.17,-9.19,-9.22,-9.25,-9.28,-9.3,-9.33,-9.36,-9.38,-9.41,-9.43,-9.46,-9.48,-9.51,-9.53,-9.56,-9.58,-9.61,-9.63,-9.65,-9.68,-9.7,-9.73,-9.75,-9.77,-9.79,-9.82,-9.84,-9.86,-9.88,-9.9,-9.93,-9.95,-9.97,-9.99,-10.0,-10.0,-10.0,-10.1,-10.1,-10.1,-10.1,-10.1,-10.2,-10.2,-10.2,-10.2,-10.2,-10.3,-10.3,-10.3,-10.3,-10.3,-10.3,-10.4,-10.4,-10.4,-10.4,-10.4,-10.4,-10.5,-10.5,-10.5,-10.5,-10.5,-10.5,-10.5,-10.5,-10.6,-10.6,-10.6,-10.6,-10.6,-10.6,-10.6,-10.6,-10.7,-10.7,-10.7,-10.7,-10.7,-10.7,-10.7,-10.7,-10.7,-10.7,-10.7,-10.8,-10.8,-10.8,-10.8,-10.8,-10.8,-10.8,-10.8,-10.8,-10.8,-10.8,-10.8,-10.8,-10.8,-10.8,-10.8,-10.8,-10.8,-10.8,-10.8,-10.8,-10.8,-10.8,-10.8,-10.8,-10.8,-10.8,-10.8,-10.8,-10.8,-10.8,-10.8,-10.8,-10.8,-10.8,-10.8,-10.8,-10.8,-10.8,-10.8,-10.8,-10.8,-10.8,-10.8,-10.8,-10.8,-10.7,-10.7,-10.7,-10.7,-10.7,-10.7,-10.7,-10.7,-10.7,-10.7,-10.7,-10.6,-10.6,-10.6,-10.6,-10.6,-10.6,-10.6,-10.6,-10.5,-10.5,-10.5,-10.5,-10.5,-10.5,-10.5,-10.5,-10.4,-10.4,-10.4,-10.4,-10.4,-10.4,-10.3,-10.3,-10.3,-10.3,-10.3,-10.3,-10.2,-10.2,-10.2,-10.2,-10.2,-10.1,-10.1,-10.1,-10.1,-10.1,-10.0,-10.0,-10.0,-9.99,-9.97,-9.95,-9.93,-9.9,-9.88,-9.86,-9.84,-9.82,-9.79,-9.77,-9.75,-9.73,-9.7,-9.68,-9.65,-9.63,-9.61,-9.58,-9.56,-9.53,-9.51,-9.48,-9.46,-9.43,-9.41,-9.38,-9.36,-9.33,-9.3,-9.28,-9.25,-9.22,-9.19,-9.17,-9.14,-9.11,-9.08,-9.06,-9.03,-9.0,-8.97,-8.94,-8.91,-8.88,-8.85,-8.82,-8.79,-8.76,-8.73,-8.7,-8.67,-8.64
-8.24,-8.27,-8.3,-8.33,-8.36,-8.39,-8.42,-8.44,-8.47,-8.5,-8.53,-8.55,-8.58,-8.61,-8.64,-8.66,-8.69,-8.72,-8.74,-8.77,-8.79,-8.82,-8.85,-8.87,-8.9,-8.92,-8.95,-8.97,-9.0,-9.02,-9.04,-9.07,-9.09,-9.11,-9.14,-9.16,-9.18,-9.21,-9.23,-9.25,-9.27,-9.3,-9.32,-9.34,-9.36,-9.38,-9.4,-9.42,-9.44,-9.46,-9.48,-9.5,-9.52,-9.54,-9.56,-9.58,-9.6,-9.62,-9.64,-9.66,-9.68,-9.69,-9.71,-9.73,-9.75,-9.76,-9.78,-9.8,-9.81,-9.83,-9.85,-9.86,-9.88,-9.89,-9.91,-9.92,-9.94,-9.95,-9.97,-9.98,-9.99,-10.0,-10.0,-10.0,-10.0,-10.1,-10.1,-10.1,-10.1,-10.1,-10.1,-10.1,-10.1,-10.2,-10.2,-10.2,-10.2,-10.2,-10.2,-10.2,-10.2,-10.2,-10.2,-10.2,-10.2,-10.3,-10.3,-10.3,-10.3,-10.3,-10.3,-10.3,-10.3,-10.3,-10.3,-10.3,-10.3,-10.3,-10.3,-10.3,-10.3,-10.3,-10.3,-10.3,-10.3,-10.3,-10.3,-10.3,-10.3,-10.3,-10.3,-10.3,-10.3,-10.3,-10.3,-10.3,-10.3,-10.3,-10.3,-10.3,-10.3,-10.3,-10.3,-10.3,-10.3,-10.3,-10.3,-10.3,-10.3,-10.3,-10.3,-10.2,-10.2,-10.2,-10.2,-10.2,-10.2,-10.2,-10.2,-10.2,-10.2,-10.2,-10.2,-10.1,-10.1,-10.1,-10.1,-10.1,-10.1,-10.1,-10.1,-10.0,-10.0,-10.0,-10.0,-9.99,-9.98,-9.97,-9.95,-9.94,-9.92,-9.91,-9.89,-9.88,-9.86,-9.85,-9.83,-9.81,-9.8,-9.78,-9.76,-9.75,-9.73,-9.71,-9.69,-9.68,-9.66,-9.64,-9.62,-9.6,-9.58,-9.56,-9.54,-9.52,-9.5,-9.48,-9.46,-9.44,-9.42,-9.4,-9.38,-9.36,-9.34,-9.32,-9.3,-9.27,-9.25,-9.23,-9.21,-9.18,-9.16,-9.14,-9.11,-9.09,-9.07,-9.04,-9.02,-9.0,-8.97,-8.95,-8.92,-8.9,-8.87,-8.85,-8.82,-8.79,-8.77,-8.74,-8.72,-8.69,-8.66,-8.64,-8.61,-8.58,-8.55,-8.53,-8.5,-8.47,-8.44,-8.42,-8.39,-8.36,-8.33,-8.3,-8.27,-8.24
-7.84,-7.87,-7.9,-7.92,-7.95,-7.98,-8.01,-8.03,-8.06,-8.09,-8.11,-8.14,-8.17,-8.19,-8.22,-8.24,-8.27,-8.29,-8.32,-8.34,-8.37,-8.39,-8.42,-8.44,-8.46,-8.49,-8.51,-8.53,-8.56,-8.58,-8.6,-8.63,-8.65,-8.67,-8.69,-8.72,-8.74,-8.76,-8.78,-8.8,-8.82,-8.84,-8.86,-8.88,-8.91,-8.93,-8.95,-8.96,-8.98,-9.0,-9.02,-9.04,-9.06,-9.08,-9.1,-9.12,-9.13,-9.15,-9.17,-9.19,-9.2,-9.22,-9.24,-9.26,-9.27,-9.29,-9.3,-9.32,-9.34,-9.35,-9.37,-9.38,-9.4,-9.41,-9.43,-9.44,-9.45,-9.47,-9.48,-9.49,-9.51,-9.52,-9.53,-9.55,-9.56,-9.57,-9.58,-9.59,-9.6,-9.62,-9.63,-9.64,-9.65,-9.66,-9.67,-9.68,-9.68,-9.69,-9.7,-9.71,-9.72,-9.73,-9.73,-9.74,-9.75,-9.76,-9.76,-9.77,-9.77,-9.78,-9.78,-9.79,-9.79,-9.8,-9.8,-9.81,-9.81,-9.81,-9.82,-9.82,-9.82,-9.82,-9.83,-9.83,-9.83,-9.83,-9.83,-9.83,-9.83,-9.83,-9.83,-9.83,-9.83,-9.83,-9.82,-9.82,-9.82,-9.82,-9.81,-9.81,-9.81,-9.8,-9.8,-9.79,-9.79,-9.78,-9.78,-9.77,-9.77,-9.76,-9.76,-9.75,-9.74,-9.73,-9.73,-9.72,-9.71,-9.7,-9.69,-9.68,-9.68,-9.67,-9.66,-9.65,-9.64,-9.63,-9.62,-9.6,-9.59,-9.58,-9.57,-9.56,-9.55,-9.53,-9.52,-9.51,-9.49,-9.48,-9.47,-9.45,-9.44,-9.43,-9.41,-9.4,-9.38,-9.37,-9.35,-9.34,-9.32,-9.3,-9.29,-9.27,-9.26,-9.24,-9.22,-9.2,-9.19,-9.17,-9.15,-9.13,-9.12,-9.1,-9.08,-9.06,-9.04,-9.02,-9.0,-8.98,-8.96,-8.95,-8.93,-8.91,-8.88,-8.86,-8.84,-8.82,-8.8,-8.78,-8.76,-8.74,-8.72,-8.69,-8.67,-8.65,-8.63,-8.6,-8.58,-8.56,-8.53,-8.51,-8.49,-8.46,-8.44,-8.42,-8.39,-8.37,-8.34,-8.32,-8.29,-8.27,-8.24,-8.22,-8.19,-8.17,-8.14,-8.11,-8.09,-8.06,-8.03,-8.01,-7.98,-7.95,-7.92,-7.9,-7.87,-7.84
-7.44,-7.47,-7.49,-7.52,-7.55,-7.57,-7.6,-7.62,-7.65,-7.67,-7.7,-7.72,-7.75,-7.77,-7.8,-7.82,-7.84,-7.87,-7.89,-7.92,-7.94,-7.96,-7.99,-8.01,-8.03,-8.05,-8.08,-8.1,-8.12,-8.14,-8.16,-8.19,-8.21,-8.23,-8.25,-8.27,-8.29,-8.31,-8.33,-8.35,-8.37,-8.39,-8.41,-8.43,-8.45,-8.47,-8.49,-8.51,-8.52,-8.54,-8.56,-8.58,-8.6,-8.61,-8.63,-8.65,-8.67,-8.68,-8.7,-8.72,-8.73,-8.75,-8.77,-8.78,-8.8,-8.81,-8.83,-8.84,-8.86,-8.87,-8.89,-8.9,-8.92,-8.93,-8.94,-8.96,-8.97,-8.98,-9.0,-9.01,-9.02,-9.03,-9.05,-9.06,-9.07,-9.08,-9.09,-9.1,-9.11,-9.12,-9.13,-9.14,-9.15,-9.16,-9.17,-9.18,-9.19,-9.2,-9.21,-9.21,-9.22,-9.23,-9.24,-9.24,-9.25,-9.26,-9.26,-9.27,-9.27,-9.28,-9.28,-9.29,-9.29,-9.3,-9.3,-9.31,-9.31,-9.31,-9.31,-9.32,-9.32,-9.32,-9.32,-9.32,-9.33,-9.33,-9.33,-9.33,-9.33,-9.33,-9.33,-9.33,-9.32,-9.32,-9.32,-9.32,-9.32,-9.31,-9.31,-9.31,-9.31,-9.3,-9.3,-9.29,-9.29,-9.28,-9.28,-9.27,-9.27,-9.26,-9.26,-9.25,-9.24,-9.24,-9.23,-9.22,-9.21,-9.21,-9.2,-9.19,-9.18,-9.17,-9.16,-9.15,-9.14,-9.13,-9.12,-9.11,-9.1,-9.09,-9.08,-9.07,-9.06,-9.05,-9.03,-9.02,-9.01,-9.0,-8.98,-8.97,-8.96,-8.94,-8.93,-8.92,-8.9,-8.89,-8.87,-8.86,-8.84,-8.83,-8.81,-8.8,-8.78,-8.77,-8.75,-8.73,-8.72,-8.7,-8.68,-8.67,-8.65,-8.63,-8.61,-8.6,-8.58,-8.56,-8.54,-8.52,-8.51,-8.49,-8.47,-8.45,-8.43,-8.41,-8.39,-8.37,-8.35,-8.33,-8.31,-8.29,-8.27,-8.25,-8.23,-8.21,-8.19,-8.16,-8.14,-8.12,-8.1,-8.08,-8.05,-8.03,-8.01,-7.99,-7.96,-7.94,-7.92,-7.89,-7.87,-7.84,-7.82,-7.8,-7.77,-7.75,-7.72,-7.7,-7.67,-7.65,-7.62,-7.6,-7.57,-7.55,-7.52,-7.49,-7.47,-7.44
-7.04,-7.07,-7.09,-7.11,-7.14,-7.16,-7.19,-7.21,-7.24,-7.26,-7.28,-7.31,-7.33,-7.35,-7.38,-7.4,-7.42,-7.44,-7.47,-7.49,-7.51,-7.53,-7.56,-7.58,-7.6,-7.62,-7.64,-7.66,-7.68,-7.7,-7.72,-7.74,-7.76,-7.78,-7.8,-7.82,-7.84,-7.86,-7.88,-7.9,-7.92,-7.94,-7.96,-7.98,-7.99,-8.01,-8.03,-8.05,-8.06,-8.08,-8.1,-8.12,-8.13,-8.15,-8.17,-8.18,-8.2,-8.22,-8.23,-8.25,-8.26,-8.28,-8.29,-8.31,-8.32,-8.34,-8.35,-8.37,-8.38,-8.39,-8.41,-8.42,-8.43,-8.45,-8.46,-8.47,-8.49,-8.5,-8.51,-8.52,-8.53,-8.55,-8.56,-8.57,-8.58,-8.59,-8.6,-8.61,-8.62,-8.63,-8.64,-8.65,-8.66,-8.67,-8.68,-8.68,-8.69,-8.7,-8.71,-8.72,-8.72,-8.73,-8.74,-8.74,-8.75,-8.76,-8.76,-8.77,-8.77,-8.78,-8.78,-8.79,-8.79,-8.8,-8.8,-8.8,-8.81,-8.81,-8.81,-8.81,-8.82,-8.82,-8.82,-8.82,-8.82,-8.82,-8.82,-8.82,-8.82,-8.82,-8.82,-8.82,-8.82,-8.82,-8.82,-8.82,-8.81,-8.81,-8.81,-8.81,-8.8,-8.8,-8.8,-8.79,-8.79,-8.78,-8.78,-8.77,-8.77,-8.76,-8.76,-8.75,-8.74,-8.74,-8.73,-8.72,-8.72,-8.71,-8.7,-8.69,-8.68,-8.68,-8.67,-8.66,-8.65,-8.64,-8.63,-8.62,-8.61,-8.6,-8.59,-8.58,-8.57,-8.56,-8.55,-8.53,-8.52,-8.51,-8.5,-8.49,-8.47,-8.46,-8.45,-8.43,-8.42,-8.41,-8.39,-8.38,-8.37,-8.35,-8.34,-8.32,-8.31,-8.29,-8.28,-8.26,-8.25,-8.23,-8.22,-8.2,-8.18,-8.17,-8.15,-8.13,-8.12,-8.1,-8.08,-8.06,-8.05,-8.03,-8.01,-7.99,-7.98,-7.96,-7.94,-7.92,-7.9,-7.88,-7.86,-7.84,-7.82,-7.8,-7.78,-7.76,-7.74,-7.72,-7.7,-7.68,-7.66,-7.64,-7.62,-7.6,-7.58,-7.56,-7.53,-7.51,-7.49,-7.47,-7.44,-7.42,-7.4,-7.38,-7.35,-7.33,-7.31,-7.28,-7.26,-7.24,-7.21,-7.19,-7.16,-7.14,-7.11,-7.09,-7.07,-7.04
-6.64,-6.66,-6.69,-6.71,-6.73,-6.76,-6.78,-6.8,-6.82,-6.85,-6.87,-6.89,-6.91,-6.93,-6.96,-6.98,-7.0,-7.02,-7.04,-7.06,-7.08,-7.1,-7.12,-7.14,-7.16,-7.18,-7.2,-7.22,-7.24,-7.26,-7.28,-7.3,-7.32,-7.34,-7.36,-7.38,-7.4,-7.41,-7.43,-7.45,-7.47,-7.49,-7.5,-7.52,-7.54,-7.55,-7.57,-7.59,-7.6,-7.62,-7.64,-7.65,-7.67,-7.68,-7.7,-7.72,-7.73,-7.75,-7.76,-7.78,-7.79,-7.81,-7.82,-7.83,-7.85,-7.86,-7.88,-7.89,-7.9,-7.91,-7.93,-7.94,-7.95,-7.97,-7.98,-7.99,-8.0,-8.01,-8.02,-8.04,-8.05,-8.06,-8.07,-8.08,-8.09,-8.1,-8.11,-8.12,-8.13,-8.14,-8.15,-8.16,-8.16,-8.17,-8.18,-8.19,-8.2,-8.2,-8.21,-8.22,-8.23,-8.23,-8.24,-8.24,-8.25,-8.26,-8.26,-8.27,-8.27,-8.28,-8.28,-8.29,-8.29,-8.29,-8.3,-8.3,-8.3,-8.31,-8.31,-8.31,-8.31,-8.31,-8.32,-8.32,-8.32,-8.32,-8.32,-8.32,-8.32,-8.32,-8.32,-8.32,-8.32,-8.32,-8.31,-8.31,-8.31,-8.31,-8.31,-8.3,-8.3,-8.3,-8.29,-8.29,-8.29,-8.28,-8.28,-8.27,-8.27,-8.26,-8.26,-8.25,-8.24,-8.24,-8.23,-8.23,-8.22,-8.21,-8.2,-8.2,-8.19,-8.18,-8.17,-8.16,-8.16,-8.15,-8.14,-8.13,-8.12,-8.11,-8.1,-8.09,-8.08,-8.07,-8.06,-8.05,-8.04,-8.02,-8.01,-8.0,-7.99,-7.98,-7.97,-7.95,-7.94,-7.93,-7.91,-7.9,-7.89,-7.88,-7.86,-7.85,-7.83,-7.82,-7.81,-7.79,-7.78,-7.76,-7.75,-7.73,-7.72,-7.7,-7.68,-7.67,-7.65,-7.64,-7.62,-7.6,-7.59,-7.57,-7.55,-7.54,-7.52,-7.5,-7.49,-7.47,-7.45,-7.43,-7.41,-7.4,-7.38,-7.36,-7.34,-7.32,-7.3,-7.28,-7.26,-7.24,-7.22,-7.2,-7.18,-7.16,-7.14,-7.12,-7.1,-7.08,-7.06,-7.04,-7.02,-7.0,-6.98,-6.96,-6.93,-6.91,-6.89,-6.87,-6.85,-6.82,-6.8,-6.78,-6.76,-6.73,-6.71,-6.69,-6.66,-6.64
-6.24,-6.26,-6.28,-6.3,-6.33,-6.35,-6.37,-6.39,-6.41,-6.43,-6.45,-6.47,-6.49,-6.52,-6.54,-6.56,-6.58,-6.6,-6.62,-6.64,-6.65,-6.67,-6.69,-6.71,-6.73,-6.75,-6.77,-6.79,-6.81,-6.82,-6.84,-6.86,-6.88,-6.9,-6.91,-6.93,-6.95,-6.97,-6.98,-7.0,-7.02,-7.03,-7.05,-7.07,-7.08,-7.1,-7.11,-7.13,-7.14,-7.16,-7.17,-7.19,-7.21,-7.22,-7.23,-7.25,-7.26,-7.28,-7.29,-7.31,-7.32,-7.33,-7.35,-7.36,-7.37,-7.39,-7.4,-7.41,-7.42,-7.44,-7.45,-7.46,-7.47,-7.48,-7.49,-7.51,-7.52,-7.53,-7.54,-7.55,-7.56,-7.57,-7.58,-7.59,-7.6,-7.61,-7.62,-7.63,-7.64,-7.65,-7.65,-7.66,-7.67,-7.68,-7.69,-7.69,-7.7,-7.71,-7.71,-7.72,-7.73,-7.73,-7.74,-7.75,-7.75,-7.76,-7.76,-7.77,-7.77,-7.78,-7.78,-7.78,-7.79,-7.79,-7.79,-7.8,-7.8,-7.8,-7.81,-7.81,-7.81,-7.81,-7.81,-7.81,-7.82,-7.82,-7.82,-7.82,-7.82,-7.82,-7.82,-7.82,-7.81,-7.81,-7.81,-7.81,-7.81,-7.81,-7.8,-7.8,-7.8,-7.79,-7.79,-7.79,-7.78,-7.78,-7.78,-7.77,-7.77,-7.76,-7.76,-7.75,-7.75,-7.74,-7.73,-7.73,-7.72,-7.71,-7.71,-7.7,-7.69,-7.69,-7.68,-7.67,-7.66,-7.65,-7.65,-7.64,-7.63,-7.62,-7.61,-7.6,-7.59,-7.58,-7.57,-7.56,-7.55,-7.54,-7.53,-7.52,-7.51,-7.49,-7.48,-7.47,-7.46,-7.45,-7.44,-7.42,-7.41,-7.4,-7.39,-7.37,-7.36,-7.35,-7.33,-7.32,-7.31,-7.29,-7.28,-7.26,-7.25,-7.23,-7.22,-7.21,-7.19,-7.17,-7.16,-7.14,-7.13,-7.11,-7.1,-7.08,-7.07,-7.05,-7.03,-7.02,-7.0,-6.98,-6.97,-6.95,-6.93,-6.91,-6.9,-6.88,-6.86,-6.84,-6.82,-6.81,-6.79,-6.77,-6.75,-6.73,-6.71,-6.69,-6.67,-6.65,-6.64,-6.62,-6.6,-6.58,-6.56,-6.54,-6.52,-6.49,-6.47,-6.45,-6.43,-6.41,-6.39,-6.37,-6.35,-6.33,-6.3,-6.28,-6.26,-6.24
-5.84,-5.86,-5.88,-5.9,-5.92,-5.94,-5.96,-5.98,-6.0,-6.02,-6.04,-6.06,-6.08,-6.1,-6.11,-6.13,-6.15,-6.17,-6.19,-6.21,-6.23,-6.24,-6.26,-6.28,-6.3,-6.32,-6.33,-6.35,-6.37,-6.38,-6.4,-6.42,-6.44,-6.45,-6.47,-6.48,-6.5,-6.52,-6.53,-6.55,-6.56,-6.58,-6.59,-6.61,-6.62,-6.64,-6.65,-6.67,-6.68,-6.7,-6.71,-6.73,-6.74,-6.75,-6.77,-6.78,-6.8,-6.81,-6.82,-6.83,-6.85,-6.86,-6.87,-6.89,-6.9,-6.91,-6.92,-6.93,-6.95,-6.96,-6.97,-6.98,-6.99,-7.0,-7.01,-7.02,-7.03,-7.04,-7.05,-7.06,-7.07,-7.08,-7.09,-7.1,-7.11,-7.12,-7.13,-7.14,-7.14,-7.15,-7.16,-7.17,-7.18,-7.18,-7.19,-7.2,-7.2,-7.21,-7.22,-7.22,-7.23,-7.24,-7.24,-7.25,-7.25,-7.26,-7.26,-7.27,-7.27,-7.27,-7.28,-7.28,-7.29,-7.29,-7.29,-7.3,-7.3,-7.3,-7.3,-7.3,-7.31,-7.31,-7.31,-7.31,-7.31,-7.31,-7.31,-7.31,-7.31,-7.31,-7.31,-7.31,-7.31,-7.31,-7.31,-7.31,-7.3,-7.3,-7.3,-7.3,-7.3,-7.29,-7.29,-7.29,-7.28,-7.28,-7.27,-7.27,-7.27,-7.26,-7.26,-7.25,-7.25,-7.24,-7.24,-7.23,-7.22,-7.22,-7.21,-7.2,-7.2,-7.19,-7.18,-7.18,-7.17,-7.16,-7.15,-7.14,-7.14,-7.13,-7.12,-7.11,-7.1,-7.09,-7.08,-7.07,-7.06,-7.05,-7.04,-7.03,-7.02,-7.01,-7.0,-6.99,-6.98,-6.97,-6.96,-6.95,-6.93,-6.92,-6.91,-6.9,-6.89,-6.87,-6.86,-6.85,-6.83,-6.82,-6.81,-6.8,-6.78,-6.77,-6.75,-6.74,-6.73,-6.71,-6.7,-6.68,-6.67,-6.65,-6.64,-6.62,-6.61,-6.59,-6.58,-6.56,-6.55,-6.53,-6.52,-6.5,-6.48,-6.47,-6.45,-6.44,-6.42,-6.4,-6.38,-6.37,-6.35,-6.33,-6.32,-6.3,-6.28,-6.26,-6.24,-6.23,-6.21,-6.19,-6.17,-6.15,-6.13,-6.11,-6.1,-6.08,-6.06,-6.04,-6.02,-6.0,-5.98,-5.96,-5.94,-5.92,-5.9,-5.88,-5.86,-5.84
-5.43,-5.45,-5.47,-5.49,-5.51,-5.53,-5.55,-5.57,-5.59,-5.6,-5.62,-5.64,-5.66,-5.68,-5.69,-5.71,-5.73,-5.75,-5.76,-5.78,-5.8,-5.81,-5.83,-5.85,-5.86,-5.88,-5.9,-5.91,-5.93,-5.95,-5.96,-5.98,-5.99,-6.01,-6.02,-6.04,-6.05,-6.07,-6.08,-6.1,-6.11,-6.13,-6.14,-6.15,-6.17,-6.18,-6.2,-6.21,-6.22,-6.24,-6.25,-6.26,-6.28,-6.29,-6.3,-6.31,-6.33,-6.34,-6.35,-6.36,-6.38,-6.39,-6.4,-6.41,-6.42,-6.43,-6.44,-6.46,-6.47,-6.48,-6.49,-6.5,-6.51,-6.52,-6.53,-6.54,-6.55,-6.56,-6.57,-6.58,-6.59,-6.59,-6.6,-6.61,-6.62,-6.63,-6.64,-6.64,-6.65,-6.66,-6.67,-6.67,-6.68,-6.69,-6.69,-6.7,-6.71,-6.71,-6.72,-6.73,-6.73,-6.74,-6.74,-6.75,-6.75,-6.76,-6.76,-6.77,-6.77,-6.77,-6.78,-6.78,-6.78,-6.79,-6.79,-6.79,-6.8,-6.8,-6.8,-6.8,-6.8,-6.8,-6.81,-6.81,-6.81,-6.81,-6.81,-6.81,-6.81,-6.81,-6.81,-6.81,-6.81,-6.81,-6.8,-6.8,-6.8,-6.8,-6.8,-6.8,-6.79,-6.79,-6.79,-6.78,-6.78,-6.78,-6.77,-6.77,-6.77,-6.76,-6.76,-6.75,-6.75,-6.74,-6.74,-6.73,-6.73,-6.72,-6.71,-6.71,-6.7,-6.69,-6.69,-6.68,-6.67,-6.67,-6.66,-6.65,-6.64,-6.64,-6.63,-6.62,-6.61,-6.6,-6.59,-6.59,-6.58,-6.57,-6.56,-6.55,-6.54,-6.53,-6.52,-6.51,-6.5,-6.49,-6.48,-6.47,-6.46,-6.44,-6.43,-6.42,-6.41,-6.4,-6.39,-6.38,-6.36,-6.35,-6.34,-6.33,-6.31,-6.3,-6.29,-6.28,-6.26,-6.25,-6.24,-6.22,-6.21,-6.2,-6.18,-6.17,-6.15,-6.14,-6.13,-6.11,-6.1,-6.08,-6.07,-6.05,-6.04,-6.02,-6.01,-5.99,-5.98,-5.96,-5.95,-5.93,-5.91,-5.9,-5.88,-5.86,-5.85,-5.83,-5.81,-5.8,-5.78,-5.76,-5.75,-5.73,-5.71,-5.69,-5.68,-5.66,-5.64,-5.62,-5.6,-5.59,-5.57,-5.55,-5.53,-5.51,-5.49,-5.47,-5.45,-5.43
-5.03,-5.05,-5.07,-5.09,-5.1,-5.12,-5.14,-5.16,-5.17,-5.19,-5.21,-5.22,-5.24,-5.26,-5.27,-5.29,-5.31,-5.32,-5.34,-5.35,-5.37,-5.38,-5.4,-5.42,-5.43,-5.45,-5.46,-5.48,-5.49,-5.51,-5.52,-5.53,-5.55,-5.56,-5.58,-5.59,-5.6,-5.62,-5.63,-5.65,-5.66,-5.67,-5.69,-5.7,-5.71,-5.72,-5.74,-5.75,-5.76,-5.78,-5.79,-5.8,-5.81,-5.82,-5.84,-5.85,-5.86,-5.87,-5.88,-5.89,-5.9,-5.91,-5.93,-5.94,-5.95,-5.96,-5.97,-5.98,-5.99,-6.0,-6.01,-6.02,-6.03,-6.04,-6.05,-6.05,-6.06,-6.07,-6.08,-6.09,-6.1,-6.11,-6.11,-6.12,-6.13,-6.14,-6.15,-6.15,-6.16,-6.17,-6.17,-6.18,-6.19,-6.19,-6.2,-6.21,-6.21,-6.22,-6.22,-6.23,-6.23,-6.24,-6.24,-6.25,-6.25,-6.26,-6.26,-6.26,-6.27,-6.27,-6.28,-6.28,-6.28,-6.28,-6.29,-6.29,-6.29,-6.29,-6.3,-6.3,-6.3,-6.3,-6.3,-6.3,-6.3,-6.3,-6.3,-6.3,-6.3,-6.3,-6.3,-6.3,-6.3,-6.3,-6.3,-6.3,-6.3,-6.3,-6.29,-6.29,-6.29,-6.29,-6.28,-6.28,-6.28,-6.28,-6.27,-6.27,-6.26,-6.26,-6.26,-6.25,-6.25,-6.24,-6.24,-6.23,-6.23,-6.22,-6.22,-6.21,-6.21,-6.2,-6.19,-6.19,-6.18,-6.17,-6.17,-6.16,-6.15,-6.15,-6.14,-6.13,-6.12,-6.11,-6.11,-6.1,-6.09,-6.08,-6.07,-6.06,-6.05,-6.05,-6.04,-6.03,-6.02,-6.01,-6.0,-5.99,-5.98,-5.97,-5.96,-5.95,-5.94,-5.93,-5.91,-5.9,-5.89,-5.88,-5.87,-5.86,-5.85,-5.84,-5.82,-5.81,-5.8,-5.79,-5.78,-5.76,-5.75,-5.74,-5.72,-5.71,-5.7,-5.69,-5.67,-5.66,-5.65,-5.63,-5.62,-5.6,-5.59,-5.58,-5.56,-5.55,-5.53,-5.52,-5.51,-5.49,-5.48,-5.46,-5.45,-5.43,-5.42,-5.4,-5.38,-5.37,-5.35,-5.34,-5.32,-5.31,-5.29,-5.27,-5.26,-5.24,-5.22,-5.21,-5.19,-5.17,-5.16,-5.14,-5.12,-5.1,-5.09,-5.07,-5.05,-5.03
-4.63,-4.65,-4.66,-4.68,-4.7,-4.71,-4.73,-4.74,-4.76,-4.77,-4.79,-4.81,-4.82,-4.84,-4.85,-4.87,-4.88,-4.9,-4.91,-4.93,-4.94,-4.95,-4.97,-4.98,-5.0,-5.01,-5.02,-5.04,-5.05,-5.07,-5.08,-5.09,-5.11,-5.12,-5.13,-5.14,-5.16,-5.17,-5.18,-5.19,-5.21,-5.22,-5.23,-5.24,-5.26,-5.27,-5.28,-5.29,-5.3,-5.31,-5.32,-5.34,-5.35,-5.36,-5.37,-5.38,-5.39,-5.4,-5.41,-5.42,-5.43,-5.44,-5.45,-5.46,-5.47,-5.48,-5.49,-5.5,-5.51,-5.52,-5.53,-5.54,-5.54,-5.55,-5.56,-5.57,-5.58,-5.59,-5.59,-5.6,-5.61,-5.62,-5.63,-5.63,-5.64,-5.65,-5.65,-5.66,-5.67,-5.67,-5.68,-5.69,-5.69,-5.7,-5.7,-5.71,-5.71,-5.72,-5.73,-5.73,-5.73,-5.74,-5.74,-5.75,-5.75,-5.76,-5.76,-5.76,-5.77,-5.77,-5.77,-5.78,-5.78,-5.78,-5.78,-5.79,-5.79,-5.79,-5.79,-5.79,-5.8,-5.8,-5.8,-5.8,-5.8,-5.8,-5.8,-5.8,-5.8,-5.8,-5.8,-5.8,-5.8,-5.8,-5.8,-5.8,-5.79,-5.79,-5.79,-5.79,-5.79,-5.78,-5.78,-5.78,-5.78,-5.77,-5.77,-5.77,-5.76,-5.76,-5.76,-5.75,-5.75,-5.74,-5.74,-5.73,-5.73,-5.73,-5.72,-5.71,-5.71,-5.7,-5.7,-5.69,-5.69,-5.68,-5.67,-5.67,-5.66,-5.65,-5.65,-5.64,-5.63,-5.63,-5.62,-5.61,-5.6,-5.59,-5.59,-5.58,-5.57,-5.56,-5.55,-5.54,-5.54,-5.53,-5.52,-5.51,-5.5,-5.49,-5.48,-5.47,-5.46,-5.45,-5.44,-5.43,-5.42,-5.41,-5.4,-5.39,-5.38,-5.37,-5.36,-5.35,-5.34,-5.32,-5.31,-5.3,-5.29,-5.28,-5.27,-5.26,-5.24,-5.23,-5.22,-5.21,-5.19,-5.18,-5.17,-5.16,-5.14,-5.13,-5.12,-5.11,-5.09,-5.08,-5.07,-5.05,-5.04,-5.02,-5.01,-5.0,-4.98,-4.97,-4.95,-4.94,-4.93,-4.91,-4.9,-4.88,-4.87,-4.85,-4.84,-4.82,-4.81,-4.79,-4.77,-4.76,-4.74,-4.73,-4.71,-4.7,-4.68,-4.66,-4.65,-4.63
-4.23,-4.24,-4.26,-4.27,-4.29,-4.3,-4.32,-4.33,-4.35,-4.36,-4.37,-4.39,-4.4,-4.42,-4.43,-4.44,-4.46,-4.47,-4.48,-4.5,-4.51,-4.52,-4.54,-4.55,-4.56,-4.58,-4.59,-4.6,-4.61,-4.63,-4.64,-4.65,-4.66,-4.67,-4.69,-4.7,-4.71,-4.72,-4.73,-4.74,-4.75,-4.77,-4.78,-4.79,-4.8,-4.81,-4.82,-4.83,-4.84,-4.85,-4.86,-4.87,-4.88,-4.89,-4.9,-4.91,-4.92,-4.93,-4.94,-4.95,-4.96,-4.97,-4.98,-4.99,-5.0,-5.0,-5.01,-5.02,-5.03,-5.04,-5.05,-5.05,-5.06,-5.07,-5.08,-5.09,-5.09,-5.1,-5.11,-5.12,-5.12,-5.13,-5.14,-5.14,-5.15,-5.16,-5.16,-5.17,-5.17,-5.18,-5.19,-5.19,-5.2,-5.2,-5.21,-5.21,-5.22,-5.22,-5.23,-5.23,-5.24,-5.24,-5.24,-5.25,-5.25,-5.26,-5.26,-5.26,-5.27,-5.27,-5.27,-5.27,-5.28,-5.28,-5.28,-5.28,-5.29,-5.29,-5.29,-5.29,-5.29,-5.29,-5.29,-5.3,-5.3,-5.3,-5.3,-5.3,-5.3,-5.3,-5.3,-5.3,-5.3,-5.29,-5.29,-5.29,-5.29,-5.29,-5.29,-5.29,-5.28,-5.28,-5.28,-5.28,-5.27,-5.27,-5.27,-5.27,-5.26,-5.26,-5.26,-5.25,-5.25,-5.24,-5.24,-5.24,-5.23,-5.23,-5.22,-5.22,-5.21,-5.21,-5.2,-5.2,-5.19,-5.19,-5.18,-5.17,-5.17,-5.16,-5.16,-5.15,-5.14,-5.14,-5.13,-5.12,-5.12,-5.11,-5.1,-5.09,-5.09,-5.08,-5.07,-5.06,-5.05,-5.05,-5.04,-5.03,-5.02,-5.01,-5.0,-5.0,-4.99,-4.98,-4.97,-4.96,-4.95,-4.94,-4.93,-4.92,-4.91,-4.9,-4.89,-4.88,-4.87,-4.86,-4.85,-4.84,-4.83,-4.82,-4.81,-4.8,-4.79,-4.78,-4.77,-4.75,-4.74,-4.73,-4.72,-4.71,-4.7,-4.69,-4.67,-4.66,-4.65,-4.64,-4.63,-4.61,-4.6,-4.59,-4.58,-4.56,-4.55,-4.54,-4.52,-4.51,-4.5,-4.48,-4.47,-4.46,-4.44,-4.43,-4.42,-4.4,-4.39,-4.37,-4.36,-4.35,-4.33,-4.32,-4.3,-4.29,-4.27,-4.26,-4.24,-4.23
-3.83,-3.84,-3.85,-3.87,-3.88,-3.89,-3.91,-3.92,-3.93,-3.95,-3.96,-3.97,-3.98,-4.0,-4.01,-4.02,-4.03,-4.05,-4.06,-4.07,-4.08,-4.09,-4.1,-4.12,-4.13,-4.14,-4.15,-4.16,-4.17,-4.18,-4.2,-4.21,-4.22,-4.23,-4.24,-4.25,-4.26,-4.27,-4.28,-4.29,-4.3,-4.31,-4.32,-4.33,-4.34,-4.35,-4.36,-4.37,-4.38,-4.39,-4.4,-4.41,-4.42,-4.43,-4.44,-4.44,-4.45,-4.46,-4.47,-4.48,-4.49,-4.5,-4.5,-4.51,-4.52,-4.53,-4.54,-4.54,-4.55,-4.56,-4.57,-4.57,-4.58,-4.59,-4.6,-4.6,-4.61,-4.62,-4.62,-4.63,-4.64,-4.64,-4.65,-4.65,-4.66,-4.67,-4.67,-4.68,-4.68,-4.69,-4.69,-4.7,-4.7,-4.71,-4.71,-4.72,-4.72,-4.73,-4.73,-4.73,-4.74,-4.74,-4.75,-4.75,-4.75,-4.76,-4.76,-4.76,-4.76,-4.77,-4.77,-4.77,-4.77,-4.78,-4.78,-4.78,-4.78,-4.78,-4.79,-4.79,-4.79,-4.79,-4.79,-4.79,-4.79,-4.79,-4.79,-4.79,-4.79,-4.79,-4.79,-4.79,-4.79,-4.79,-4.79,-4.79,-4.79,-4.79,-4.78,-4.78,-4.78,-4.78,-4.78,-4.77,-4.77,-4.77,-4.77,-4.76,-4.76,-4.76,-4.76,-4.75,-4.75,-4.75,-4.74,-4.74,-4.73,-4.73,-4.73,-4.72,-4.72,-4.71,-4.71,-4.7,-4.7,-4.69,-4.69,-4.68,-4.68,-4.67,-4.67,-4.66,-4.65,-4.65,-4.64,-4.64,-4.63,-4.62,-4.62,-4.61,-4.6,-4.6,-4.59,-4.58,-4.57,-4.57,-4.56,-4.55,-4.54,-4.54,-4.53,-4.52,-4.51,-4.5,-4.5,-4.49,-4.48,-4.47,-4.46,-4.45,-4.44,-4.44,-4.43,-4.42,-4.41,-4.4,-4.39,-4.38,-4.37,-4.36,-4.35,-4.34,-4.33,-4.32,-4.31,-4.3,-4.29,-4.28,-4.27,-4.26,-4.25,-4.24,-4.23,-4.22,-4.21,-4.2,-4.18,-4.17,-4.16,-4.15,-4.14,-4.13,-4.12,-4.1,-4.09,-4.08,-4.07,-4.06,-4.05,-4.03,-4.02,-4.01,-4.0,-3.98,-3.97,-3.96,-3.95,-3.93,-3.92,-3.91,-3.89,-3.88,-3.87,-3.85,-3.84,-3.83
-3.42,-3.44,-3.45,-3.46,-3.47,-3.48,-3.5,-3.51,-3.52,-3.53,-3.54,-3.55,-3.56,-3.58,-3.59,-3.6,-3.61,-3.62,-3.63,-3.64,-3.65,-3.66,-3.67,-3.68,-3.69,-3.7,-3.71,-3.72,-3.73,-3.74,-3.75,-3.76,-3.77,-3.78,-3.79,-3.8,-3.81,-3.82,-3.83,-3.84,-3.85,-3.86,-3.87,-3.88,-3.89,-3.89,-3.9,-3.91,-3.92,-3.93,-3.94,-3.94,-3.95,-3.96,-3.97,-3.98,-3.98,-3.99,-4.0,-4.01,-4.02,-4.02,-4.03,-4.04,-4.04,-4.05,-4.06,-4.07,-4.07,-4.08,-4.09,-4.09,-4.1,-4.11,-4.11,-4.12,-4.12,-4.13,-4.14,-4.14,-4.15,-4.15,-4.16,-4.16,-4.17,-4.17,-4.18,-4.18,-4.19,-4.19,-4.2,-4.2,-4.21,-4.21,-4.22,-4.22,-4.22,-4.23,-4.23,-4.24,-4.24,-4.24,-4.25,-4.25,-4.25,-4.26,-4.26,-4.26,-4.26,-4.27,-4.27,-4.27,-4.27,-4.27,-4.28,-4.28,-4.28,-4.28,-4.28,-4.28,-4.28,-4.29,-4.29,-4.29,-4.29,-4.29,-4.29,-4.29,-4.29,-4.29,-4.29,-4.29,-4.29,-4.29,-4.29,-4.28,-4.28,-4.28,-4.28,-4.28,-4.28,-4.28,-4.27,-4.27,-4.27,-4.27,-4.27,-4.26,-4.26,-4.26,-4.26,-4.25,-4.25,-4.25,-4.24,-4.24,-4.24,-4.23,-4.23,-4.22,-4.22,-4.22,-4.21,-4.21,-4.2,-4.2,-4.19,-4.19,-4.18,-4.18,-4.17,-4.17,-4.16,-4.16,-4.15,-4.15,-4.14,-4.14,-4.13,-4.12,-4.12,-4.11,-4.11,-4.1,-4.09,-4.09,-4.08,-4.07,-4.07,-4.06,-4.05,-4.04,-4.04,-4.03,-4.02,-4.02,-4.01,-4.0,-3.99,-3.98,-3.98,-3.97,-3.96,-3.95,-3.94,-3.94,-3.93,-3.92,-3.91,-3.9,-3.89,-3.89,-3.88,-3.87,-3.86,-3.85,-3.84,-3.83,-3.82,-3.81,-3.8,-3.79,-3.78,-3.77,-3.76,-3.75,-3.74,-3.73,-3.72,-3.71,-3.7,-3.69,-3.68,-3.67,-3.66,-3.65,-3.64,-3.63,-3.62,-3.61,-3.6,-3.59,-3.58,-3.56,-3.55,-3.54,-3.53,-3.52,-3.51,-3.5,-3.48,-3.47,-3.46,-3.45,-3.44,-3.42
-3.02,-3.03,-3.04,-3.05,-3.06,-3.07,-3.08,-3.09,-3.11,-3.12,-3.13,-3.14,-3.15,-3.16,-3.16,-3.17,-3.18,-3.19,-3.2,-3.21,-3.22,-3.23,-3.24,-3.25,-3.26,-3.27,-3.28,-3.29,-3.3,-3.3,-3.31,-3.32,-3.33,-3.34,-3.35,-3.36,-3.36,-3.37,-3.38,-3.39,-3.4,-3.4,-3.41,-3.42,-3.43,-3.44,-3.44,-3.45,-3.46,-3.47,-3.47,-3.48,-3.49,-3.5,-3.5,-3.51,-3.52,-3.52,-3.53,-3.54,-3.54,-3.55,-3.56,-3.56,-3.57,-3.58,-3.58,-3.59,-3.59,-3.6,-3.61,-3.61,-3.62,-3.62,-3.63,-3.63,-3.64,-3.64,-3.65,-3.65,-3.66,-3.66,-3.67,-3.67,-3.68,-3.68,-3.69,-3.69,-3.7,-3.7,-3.7,-3.71,-3.71,-3.72,-3.72,-3.72,-3.73,-3.73,-3.73,-3.74,-3.74,-3.74,-3.75,-3.75,-3.75,-3.75,-3.76,-3.76,-3.76,-3.76,-3.77,-3.77,-3.77,-3.77,-3.77,-3.77,-3.78,-3.78,-3.78,-3.78,-3.78,-3.78,-3.78,-3.78,-3.78,-3.78,-3.78,-3.78,-3.78,-3.78,-3.78,-3.78,-3.78,-3.78,-3.78,-3.78,-3.78,-3.78,-3.78,-3.78,-3.77,-3.77,-3.77,-3.77,-3.77,-3.77,-3.76,-3.76,-3.76,-3.76,-3.75,-3.75,-3.75,-3.75,-3.74,-3.74,-3.74,-3.73,-3.73,-3.73,-3.72,-3.72,-3.72,-3.71,-3.71,-3.7,-3.7,-3.7,-3.69,-3.69,-3.68,-3.68,-3.67,-3.67,-3.66,-3.66,-3.65,-3.65,-3.64,-3.64,-3.63,-3.63,-3.62,-3.62,-3.61,-3.61,-3.6,-3.59,-3.59,-3.58,-3.58,-3.57,-3.56,-3.56,-3.55,-3.54,-3.54,-3.53,-3.52,-3.52,-3.51,-3.5,-3.5,-3.49,-3.48,-3.47,-3.47,-3.46,-3.45,-3.44,-3.44,-3.43,-3.42,-3.41,-3.4,-3.4,-3.39,-3.38,-3.37,-3.36,-3.36,-3.35,-3.34,-3.33,-3.32,-3.31,-3.3,-3.3,-3.29,-3.28,-3.27,-3.26,-3.25,-3.24,-3.23,-3.22,-3.21,-3.2,-3.19,-3.18,-3.17,-3.16,-3.16,-3.15,-3.14,-3.13,-3.12,-3.11,-3.09,-3.08,-3.07,-3.06,-3.05,-3.04,-3.03,-3.02
-2.62,-2.63,-2.64,-2.65,-2.66,-2.66,-2.67,-2.68,-2.69,-2.7,-2.71,-2.72,-2.73,-2.73,-2.74,-2.75,-2.76,-2.77,-2.78,-2.78,-2.79,-2.8,-2.81,-2.82,-2.83,-2.83,-2.84,-2.85,-2.86,-2.86,-2.87,-2.88,-2.89,-2.89,-2.9,-2.91,-2.92,-2.92,-2.93,-2.94,-2.94,-2.95,-2.96,-2.96,-2.97,-2.98,-2.98,-2.99,-3.0,-3.0,-3.01,-3.02,-3.02,-3.03,-3.04,-3.04,-3.05,-3.05,-3.06,-3.07,-3.07,-3.08,-3.08,-3.09,-3.09,-3.1,-3.1,-3.11,-3.11,-3.12,-3.12,-3.13,-3.13,-3.14,-3.14,-3.15,-3.15,-3.16,-3.16,-3.17,-3.17,-3.18,-3.18,-3.18,-3.19,-3.19,-3.2,-3.2,-3.2,-3.21,-3.21,-3.21,-3.22,-3.22,-3.22,-3.23,-3.23,-3.23,-3.24,-3.24,-3.24,-3.24,-3.25,-3.25,-3.25,-3.25,-3.26,-3.26,-3.26,-3.26,-3.26,-3.27,-3.27,-3.27,-3.27,-3.27,-3.27,-3.27,-3.27,-3.28,-3.28,-3.28,-3.28,-3.28,-3.28,-3.28,-3.28,-3.28,-3.28,-3.28,-3.28,-3.28,-3.28,-3.28,-3.28,-3.28,-3.28,-3.27,-3.27,-3.27,-3.27,-3.27,-3.27,-3.27,-3.27,-3.26,-3.26,-3.26,-3.26,-3.26,-3.25,-3.25,-3.25,-3.25,-3.24,-3.24,-3.24,-3.24,-3.23,-3.23,-3.23,-3.22,-3.22,-3.22,-3.21,-3.21,-3.21,-3.2,-3.2,-3.2,-3.19,-3.19,-3.18,-3.18,-3.18,-3.17,-3.17,-3.16,-3.16,-3.15,-3.15,-3.14,-3.14,-3.13,-3.13,-3.12,-3.12,-3.11,-3.11,-3.1,-3.1,-3.09,-3.09,-3.08,-3.08,-3.07,-3.07,-3.06,-3.05,-3.05,-3.04,-3.04,-3.03,-3.02,-3.02,-3.01,-3.0,-3.0,-2.99,-2.98,-2.98,-2.97,-2.96,-2.96,-2.95,-2.94,-2.94,-2.93,-2.92,-2.92,-2.91,-2.9,-2.89,-2.89,-2.88,-2.87,-2.86,-2.86,-2.85,-2.84,-2.83,-2.83,-2.82,-2.81,-2.8,-2.79,-2.78,-2.78,-2.77,-2.76,-2.75,-2.74,-2.73,-2.73,-2.72,-2.71,-2.7,-2.69,-2.68,-2.67,-2.66,-2.66,-2.65,-2.64,-2.63,-2.62
-2.22,-2.22,-2.23,-2.24,-2.25,-2.25,-2.26,-2.27,-2.28,-2.28,-2.29,-2.3,-2.31,-2.31,-2.32,-2.33,-2.34,-2.34,-2.35,-2.36,-2.36,-2.37,-2.38,-2.38,-2.39,-2.4,-2.4,-2.41,-2.42,-2.42,-2.43,-2.44,-2.44,-2.45,-2.45,-2.46,-2.47,-2.47,-2.48,-2.49,-2.49,-2.5,-2.5,-2.51,-2.51,-2.52,-2.53,-2.53,-2.54,-2.54,-2.55,-2.55,-2.56,-2.56,-2.57,-2.57,-2.58,-2.58,-2.59,-2.59,-2.6,-2.6,-2.61,-2.61,-2.62,-2.62,-2.63,-2.63,-2.64,-2.64,-2.64,-2.65,-2.65,-2.66,-2.66,-2.66,-2.67,-2.67,-2.68,-2.68,-2.68,-2.69,-2.69,-2.69,-2.7,-2.7,-2.7,-2.71,-2.71,-2.71,-2.72,-2.72,-2.72,-2.73,-2.73,-2.73,-2.73,-2.74,-2.74,-2.74,-2.74,-2.75,-2.75,-2.75,-2.75,-2.75,-2.76,-2.76,-2.76,-2.76,-2.76,-2.76,-2.76,-2.77,-2.77,-2.77,-2.77,-2.77,-2.77,-2.77,-2.77,-2.77,-2.77,-2.77,-2.77,-2.77,-2.77,-2.77,-2.77,-2.77,-2.77,-2.77,-2.77,-2.77,-2.77,-2.77,-2.77,-2.77,-2.77,-2.77,-2.77,-2.77,-2.77,-2.76,-2.76,-2.76,-2.76,-2.76,-2.76,-2.76,-2.75,-2.75,-2.75,-2.75,-2.75,-2.74,-2.74,-2.74,-2.74,-2.73,-2.73,-2.73,-2.73,-2.72,-2.72,-2.72,-2.71,-2.71,-2.71,-2.7,-2.7,-2.7,-2.69,-2.69,-2.69,-2.68,-2.68,-2.68,-2.67,-2.67,-2.66,-2.66,-2.66,-2.65,-2.65,-2.64,-2.64,-2.64,-2.63,-2.63,-2.62,-2.62,-2.61,-2.61,-2.6,-2.6,-2.59,-2.59,-2.58,-2.58,-2.57,-2.57,-2.56,-2.56,-2.55,-2.55,-2.54,-2.54,-2.53,-2.53,-2.52,-2.51,-2.51,-2.5,-2.5,-2.49,-2.49,-2.48,-2.47,-2.47,-2.46,-2.45,-2.45,-2.44,-2.44,-2.43,-2.42,-2.42,-2.41,-2.4,-2.4,-2.39,-2.38,-2.38,-2.37,-2.36,-2.36,-2.35,-2.34,-2.34,-2.33,-2.32,-2.31,-2.31,-2.3,-2.29,-2.28,-2.28,-2.27,-2.26,-2.25,-2.25,-2.24,-2.23,-2.22,-2.22
-1.81,-1.82,-1.83,-1.83,-1.84,-1.84,-1.85,-1.86,-1.86,-1.87,-1.88,-1.88,-1.89,-1.89,-1.9,-1.91,-1.91,-1.92,-1.92,-1.93,-1.93,-1.94,-1.94,-1.95,-1.96,-1.96,-1.97,-1.97,-1.98,-1.98,-1.99,-1.99,-2.0,-2.0,-2.01,-2.01,-2.02,-2.02,-2.03,-2.03,-2.04,-2.04,-2.05,-2.05,-2.06,-2.06,-2.07,-2.07,-2.08,-2.08,-2.08,-2.09,-2.09,-2.1,-2.1,-2.11,-2.11,-2.11,-2.12,-2.12,-2.13,-2.13,-2.13,-2.14,-2.14,-2.15,-2.15,-2.15,-2.16,-2.16,-2.16,-2.17,-2.17,-2.17,-2.18,-2.18,-2.18,-2.19,-2.19,-2.19,-2.2,-2.2,-2.2,-2.2,-2.21,-2.21,-2.21,-2.22,-2.22,-2.22,-2.22,-2.23,-2.23,-2.23,-2.23,-2.23,-2.24,-2.24,-2.24,-2.24,-2.24,-2.25,-2.25,-2.25,-2.25,-2.25,-2.25,-2.26,-2.26,-2.26,-2.26,-2.26,-2.26,-2.26,-2.26,-2.27,-2.27,-2.27,-2.27,-2.27,-2.27,-2.27,-2.27,-2.27,-2.27,-2.27,-2.27,-2.27,-2.27,-2.27,-2.27,-2.27,-2.27,-2.27,-2.27,-2.27,-2.27,-2.27,-2.27,-2.27,-2.27,-2.26,-2.26,-2.26,-2.26,-2.26,-2.26,-2.26,-2.26,-2.25,-2.25,-2.25,-2.25,-2.25,-2.25,-2.24,-2.24,-2.24,-2.24,-2.24,-2.23,-2.23,-2.23,-2.23,-2.23,-2.22,-2.22,-2.22,-2.22,-2.21,-2.21,-2.21,-2.2,-2.2,-2.2,-2.2,-2.19,-2.19,-2.19,-2.18,-2.18,-2.18,-2.17,-2.17,-2.17,-2.16,-2.16,-2.16,-2.15,-2.15,-2.15,-2.14,-2.14,-2.13,-2.13,-2.13,-2.12,-2.12,-2.11,-2.11,-2.11,-2.1,-2.1,-2.09,-2.09,-2.08,-2.08,-2.08,-2.07,-2.07,-2.06,-2.06,-2.05,-2.05,-2.04,-2.04,-2.03,-2.03,-2.02,-2.02,-2.01,-2.01,-2.0,-2.0,-1.99,-1.99,-1.98,-1.98,-1.97,-1.97,-1.96,-1.96,-1.95,-1.94,-1.94,-1.93,-1.93,-1.92,-1.92,-1.91,-1.91,-1.9,-1.89,-1.89,-1.88,-1.88,-1.87,-1.86,-1.86,-1.85,-1.84,-1.84,-1.83,-1.83,-1.82,-1.81
-1.41,-1.42,-1.42,-1.43,-1.43,-1.43,-1.44,-1.44,-1.45,-1.45,-1.46,-1.46,-1.47,-1.47,-1.48,-1.48,-1.49,-1.49,-1.5,-1.5,-1.5,-1.51,-1.51,-1.52,-1.52,-1.53,-1.53,-1.53,-1.54,-1.54,-1.55,-1.55,-1.55,-1.56,-1.56,-1.57,-1.57,-1.57,-1.58,-1.58,-1.59,-1.59,-1.59,-1.6,-1.6,-1.6,-1.61,-1.61,-1.61,-1.62,-1.62,-1.62,-1.63,-1.63,-1.63,-1.64,-1.64,-1.64,-1.65,-1.65,-1.65,-1.66,-1.66,-1.66,-1.67,-1.67,-1.67,-1.67,-1.68,-1.68,-1.68,-1.69,-1.69,-1.69,-1.69,-1.7,-1.7,-1.7,-1.7,-1.71,-1.71,-1.71,-1.71,-1.71,-1.72,-1.72,-1.72,-1.72,-1.73,-1.73,-1.73,-1.73,-1.73,-1.73,-1.74,-1.74,-1.74,-1.74,-1.74,-1.74,-1.75,-1.75,-1.75,-1.75,-1.75,-1.75,-1.75,-1.75,-1.76,-1.76,-1.76,-1.76,-1.76,-1.76,-1.76,-1.76,-1.76,-1.76,-1.76,-1.76,-1.76,-1.76,-1.77,-1.77,-1.77,-1.77,-1.77,-1.77,-1.77,-1.77,-1.77,-1.77,-1.77,-1.77,-1.76,-1.76,-1.76,-1.76,-1.76,-1.76,-1.76,-1.76,-1.76,-1.76,-1.76,-1.76,-1.76,-1.76,-1.75,-1.75,-1.75,-1.75,-1.75,-1.75,-1.75,-1.75,-1.74,-1.74,-1.74,-1.74,-1.74,-1.74,-1.73,-1.73,-1.73,-1.73,-1.73,-1.73,-1.72,-1.72,-1.72,-1.72,-1.71,-1.71,-1.71,-1.71,-1.71,-1.7,-1.7,-1.7,-1.7,-1.69,-1.69,-1.69,-1.69,-1.68,-1.68,-1.68,-1.67,-1.67,-1.67,-1.67,-1.66,-1.66,-1.66,-1.65,-1.65,-1.65,-1.64,-1.64,-1.64,-1.63,-1.63,-1.63,-1.62,-1.62,-1.62,-1.61,-1.61,-1.61,-1.6,-1.6,-1.6,-1.59,-1.59,-1.59,-1.58,-1.58,-1.57,-1.57,-1.57,-1.56,-1.56,-1.55,-1.55,-1.55,-1.54,-1.54,-1.53,-1.53,-1.53,-1.52,-1.52,-1.51,-1.51,-1.5,-1.5,-1.5,-1.49,-1.49,-1.48,-1.48,-1.47,-1.47,-1.46,-1.46,-1.45,-1.45,-1.44,-1.44,-1.43,-1.43,-1.43,-1.42,-1.42,-1.41
-1.01,-1.01,-1.01,-1.02,-1.02,-1.02,-1.03,-1.03,-1.04,-1.04,-1.04,-1.05,-1.05,-1.05,-1.06,-1.06,-1.06,-1.06,-1.07,-1.07,-1.07,-1.08,-1.08,-1.08,-1.09,-1.09,-1.09,-1.1,-1.1,-1.1,-1.1,-1.11,-1.11,-1.11,-1.12,-1.12,-1.12,-1.12,-1.13,-1.13,-1.13,-1.14,-1.14,-1.14,-1.14,-1.15,-1.15,-1.15,-1.15,-1.16,-1.16,-1.16,-1.16,-1.17,-1.17,-1.17,-1.17,-1.17,-1.18,-1.18,-1.18,-1.18,-1.19,-1.19,-1.19,-1.19,-1.19,-1.2,-1.2,-1.2,-1.2,-1.2,-1.21,-1.21,-1.21,-1.21,-1.21,-1.21,-1.22,-1.22,-1.22,-1.22,-1.22,-1.22,-1.23,-1.23,-1.23,-1.23,-1.23,-1.23,-1.24,-1.24,-1.24,-1.24,-1.24,-1.24,-1.24,-1.24,-1.24,-1.25,-1.25,-1.25,-1.25,-1.25,-1.25,-1.25,-1.25,-1.25,-1.25,-1.25,-1.26,-1.26,-1.26,-1.26,-1.26,-1.26,-1.26,-1.26,-1.26,-1.26,-1.26,-1.26,-1.26,-1.26,-1.26,-1.26,-1.26,-1.26,-1.26,-1.26,-1.26,-1.26,-1.26,-1.26,-1.26,-1.26,-1.26,-1.26,-1.26,-1.26,-1.26,-1.26,-1.26,-1.26,-1.26,-1.26,-1.25,-1.25,-1.25,-1.25,-1.25,-1.25,-1.25,-1.25,-1.25,-1.25,-1.25,-1.24,-1.24,-1.24,-1.24,-1.24,-1.24,-1.24,-1.24,-1.24,-1.23,-1.23,-1.23,-1.23,-1.23,-1.23,-1.22,-1.22,-1.22,-1.22,-1.22,-1.22,-1.21,-1.21,-1.21,-1.21,-1.21,-1.21,-1.2,-1.2,-1.2,-1.2,-1.2,-1.19,-1.19,-1.19,-1.19,-1.19,-1.18,-1.18,-1.18,-1.18,-1.17,-1.17,-1.17,-1.17,-1.17,-1.16,-1.16,-1.16,-1.16,-1.15,-1.15,-1.15,-1.15,-1.14,-1.14,-1.14,-1.14,-1.13,-1.13,-1.13,-1.12,-1.12,-1.12,-1.12,-1.11,-1.11,-1.11,-1.1,-1.1,-1.1,-1.1,-1.09,-1.09,-1.09,-1.08,-1.08,-1.08,-1.07,-1.07,-1.07,-1.06,-1.06,-1.06,-1.06,-1.05,-1.05,-1.05,-1.04,-1.04,-1.04,-1.03,-1.03,-1.02,-1.02,-1.02,-1.01,-1.01,-1.01
-0.604,-0.607,-0.609,-0.611,-0.613,-0.615,-0.617,-0.619,-0.621,-0.623,-0.625,-0.627,-0.629,-0.631,-0.633,-0.635,-0.637,-0.639,-0.641,-0.643,-0.645,-0.647,-0.648,-0.65,-0.652,-0.654,-0.656,-0.657,-0.659,-0.661,-0.663,-0.664,-0.666,-0.668,-0.67,-0.671,-0.673,-0.675,-0.676,-0.678,-0.679,-0.681,-0.683,-0.684,-0.686,-0.687,-0.689,-0.69,-0.692,-0.693,-0.695,-0.696,-0.698,-0.699,-0.701,-0.702,-0.703,-0.705,-0.706,-0.707,-0.709,-0.71,-0.711,-0.713,-0.714,-0.715,-0.716,-0.718,-0.719,-0.72,-0.721,-0.722,-0.723,-0.725,-0.726,-0.727,-0.728,-0.729,-0.73,-0.731,-0.732,-0.733,-0.734,-0.735,-0.736,-0.737,-0.738,-0.739,-0.739,-0.74,-0.741,-0.742,-0.743,-0.743,-0.744,-0.745,-0.746,-0.746,-0.747,-0.748,-0.748,-0.749,-0.749,-0.75,-0.751,-0.751,-0.752,-0.752,-0.752,-0.753,-0.753,-0.754,-0.754,-0.754,-0.755,-0.755,-0.755,-0.756,-0.756,-0.756,-0.756,-0.756,-0.757,-0.757,-0.757,-0.757,-0.757,-0.757,-0.757,-0.757,-0.757,-0.757,-0.757,-0.757,-0.756,-0.756,-0.756,-0.756,-0.756,-0.755,-0.755,-0.755,-0.754,-0.754,-0.754,-0.753,-0.753,-0.752,-0.752,-0.752,-0.751,-0.751,-0.75,-0.749,-0.749,-0.748,-0.748,-0.747,-0.746,-0.746,-0.745,-0.744,-0.743,-0.743,-0.742,-0.741,-0.74,-0.739,-0.739,-0.738,-0.737,-0.736,-0.735,-0.734,-0.733,-0.732,-0.731,-0.73,-0.729,-0.728,-0.727,-0.726,-0.725,-0.723,-0.722,-0.721,-0.72,-0.719,-0.718,-0.716,-0.715,-0.714,-0.713,-0.711,-0.71,-0.709,-0.707,-0.706,-0.705,-0.703,-0.702,-0.701,-0.699,-0.698,-0.696,-0.695,-0.693,-0.692,-0.69,-0.689,-0.687,-0.686,-0.684,-0.683,-0.681,-0.679,-0.678,-0.676,-0.675,-0.673,-0.671,-0.67,-0.668,-0.666,-0.664,-0.663,-0.661,-0.659,-0.657,-0.656,-0.654,-0.652,-0.65,-0.648,-0.647,-0.645,-0.643,-0.641,-0.639,-0.637,-0.635,-0.633,-0.631,-0.629,-0.627,-0.625,-0.623,-0.621,-0.619,-0.617,-0.615,-0.613,-0.611,-0.609,-0.607,-0.604
-0.201,-0.202,-0.203,-0.204,-0.204,-0.205,-0.206,-0.206,-0.207,-0.208,-0.208,-0.209,-0.21,-0.21,-0.211,-0.212,-0.212,-0.213,-0.214,-0.214,-0.215,-0.216,-0.216,-0.217,-0.217,-0.218,-0.219,-0.219,-0.22,-0.22,-0.221,-0.221,-0.222,-0.223,-0.223,-0.224,-0.224,-0.225,-0.225,-0.226,-0.226,-0.227,-0.228,-0.228,-0.229,-0.229,-0.23,-0.23,-0.231,-0.231,-0.232,-0.232,-0.233,-0.233,-0.234,-0.234,-0.234,-0.235,-0.235,-0.236,-0.236,-0.237,-0.237,-0.238,-0.238,-0.238,-0.239,-0.239,-0.24,-0.24,-0.24,-0.241,-0.241,-0.242,-0.242,-0.242,-0.243,-0.243,-0.243,-0.244,-0.244,-0.244,-0.245,-0.245,-0.245,-0.246,-0.246,-0.246,-0.246,-0.247,-0.247,-0.247,-0.248,-0.248,-0.248,-0.248,-0.249,-0.249,-0.249,-0.249,-0.249,-0.25,-0.25,-0.25,-0.25,-0.25,-0.251,-0.251,-0.251,-0.251,-0.251,-0.251,-0.251,-0.251,-0.252,-0.252,-0.252,-0.252,-0.252,-0.252,-0.252,-0.252,-0.252,-0.252,-0.252,-0.252,-0.252,-0.252,-0.252,-0.252,-0.252,-0.252,-0.252,-0.252,-0.252,-0.252,-0.252,-0.252,-0.252,-0.252,-0.252,-0.252,-0.251,-0.251,-0.251,-0.251,-0.251,-0.251,-0.251,-0.251,-0.25,-0.25,-0.25,-0.25,-0.25,-0.249,-0.249,-0.249,-0.249,-0.249,-0.248,-0.248,-0.248,-0.248,-0.247,-0.247,-0.247,-0.246,-0.246,-0.246,-0.246,-0.245,-0.245,-0.245,-0.244,-0.244,-0.244,-0.243,-0.243,-0.243,-0.242,-0.242,-0.242,-0.241,-0.241,-0.24,-0.24,-0.24,-0.239,-0.239,-0.238,-0.238,-0.238,-0.237,-0.237,-0.236,-0.236,-0.235,-0.235,-0.234,-0.234,-0.234,-0.233,-0.233,-0.232,-0.232,-0.231,-0.231,-0.23,-0.23,-0.229,-0.229,-0.228,-0.228,-0.227,-0.226,-0.226,-0.225,-0.225,-0.224,-0.224,-0.223,-0.223,-0.222,-0.221,-0.221,-0.22,-0.22,-0.219,-0.219,-0.218,-0.217,-0.217,-0.216,-0.216,-0.215,-0.214,-0.214,-0.213,-0.212,-0.212,-0.211,-0.21,-0.21,-0.209,-0.208,-0.208,-0.207,-0.206,-0.206,-0.205,-0.204,-0.204,-0.203,-0.202,-0.201
0.201,0.202,0.203,0.204,0.204,0.205,0.206,0.206,0.207,0.208,0.208,0.209,0.21,0.21,0.211,0.212,0.212,0.213,0.214,0.214,0.215,0.216,0.216,0.217,0.217,0.218,0.219,0.219,0.22,0.22,0.221,0.221,0.222,0.223,0.223,0.224,0.224,0.225,0.225,0.226,0.226,0.227,0.228,0.228,0.229,0.229,0.23,0.23,0.231,0.231,0.232,0.232,0.233,0.233,0.234,0.234,0.234,0.235,0.235,0.236,0.236,0.237,0.237,0.238,0.238,0.238,0.239,0.239,0.24,0.24,0.24,0.241,0.241,0.242,0.242,0.242,0.243,0.243,0.243,0.244,0.244,0.244,0.245,0.245,0.245,0.246,0.246,0.246,0.246,0.247,0.247,0.247,0.248,0.248,0.248,0.248,0.249,0.249,0.249,0.249,0.249,0.25,0.25,0.25,0.25,0.25,0.251,0.251,0.251,0.251,0.251,0.251,0.251,0.251,0.252,0.252,0.252,0.252,0.252,0.252,0.252,0.252,0.252,0.252,0.252,0.252,0.252,0.252,0.252,0.252,0.252,0.252,0.252,0.252,0.252,0.252,0.252,0.252,0.252,0.252,0.252,0.252,0.251,0.251,0.251,0.251,0.251,0.251,0.251,0.251,0.25,0.25,0.25,0.25,0.25,0.249,0.249,0.249,0.249,0.249,0.248,0.248,0.248,0.248,0.247,0.247,0.247,0.246,0.246,0.246,0.246,0.245,0.245,0.245,0.244,0.244,0.244,0.243,0.243,0.243,0.242,0.242,0.242,0.241,0.241,0.24,0.24,0.24,0.239,0.239,0.238,0.238,0.238,0.237,0.237,0.236,0.236,0.235,0.235,0.234,0.234,0.234,0.233,0.233,0.232,0.232,0.231,0.231,0.23,0.23,0.229,0.229,0.228,0.228,0.227,0.226,0.226,0.225,0.225,0.224,0.224,0.223,0.223,0.222,0.221,0.221,0.22,0.22,0.219,0.219,0.218,0.217,0.217,0.216,0.216,0.215,0.214,0.214,0.213,0.212,0.212,0.211,0.21,0.21,0.209,0.208,0.208,0.207,0.206,0.206,0.205,0.204,0.204,0.203,0.202,0.201
0.604,0.607,0.609,0.611,0.613,0.615,0.617,0.619,0.621,0.623,0.625,0.627,0.629,0.631,0.633,0.635,0.637,0.639,0.641,0.643,0.645,0.647,0.648,0.65,0.652,0.654,0.656,0.657,0.659,0.661,0.663,0.664,0.666,0.668,0.67,0.671,0.673,0.675,0.676,0.678,0.679,0.681,0.683,0.684,0.686,0.687,0.689,0.69,0.692,0.693,0.695,0.696,0.698,0.699,0.701,0.702,0.703,0.705,0.706,0.707,0.709,0.71,0.711,0.713,0.714,0.715,0.716,0.718,0.719,0.72,0.721,0.722,0.723,0.725,0.726,0.727,0.728,0.729,0.73,0.731,0.732,0.733,0.734,0.735,0.736,0.737,0.738,0.739,0.739,0.74,0.741,0.742,0.743,0.743,0.744,0.745,0.746,0.746,0.747,0.748,0.748,0.749,0.749,0.75,0.751,0.751,0.752,0.752,0.752,0.753,0.753,0.754,0.754,0.754,0.755,0.755,0.755,0.756,0.756,0.756,0.756,0.756,0.757,0.757,0.757,0.757,0.757,0.757,0.757,0.757,0.757,0.757,0.757,0.757,0.756,0.756,0.756,0.756,0.756,0.755,0.755,0.755,0.754,0.754,0.754,0.753,0.753,0.752,0.752,0.752,0.751,0.751,0.75,0.749,0.749,0.748,0.748,0.747,0.746,0.746,0.745,0.744,0.743,0.743,0.742,0.741,0.74,0.739,0.739,0.738,0.737,0.736,0.735,0.734,0.733,0.732,0.731,0.73,0.729,0.728,0.727,0.726,0.725,0.723,0.722,0.721,0.72,0.719,0.718,0.716,0.715,0.714,0.713,0.711,0.71,0.709,0.707,0.706,0.705,0.703,0.702,0.701,0.699,0.698,0.696,0.695,0.693,0.692,0.69,0.689,0.687,0.686,0.684,0.683,0.681,0.679,0.678,0.676,0.675,0.673,0.671,0.67,0.668,0.666,0.664,0.663,0.661,0.659,0.657,0.656,0.654,0.652,0.65,0.648,0.647,0.645,0.643,0.641,0.639,0.637,0.635,0.633,0.631,0.629,0.627,0.625,0.623,0.621,0.619,0.617,0.615,0.613,0.611,0.609,0.607,0.604
1.01,1.01,1.01,1.02,1.02,1.02,1.03,1.03,1.04,1.04,1.04,1.05,1.05,1.05,1.06,1.06,1.06,1.06,1.07,1.07,1.07,1.08,1.08,1.08,1.09,1.09,1.09,1.1,1.1,1.1,1.1,1.11,1.11,1.11,1.12,1.12,1.12,1.12,1.13,1.13,1.13,1.14,1.14,1.14,1.14,1.15,1.15,1.15,1.15,1.16,1.16,1.16,1.16,1.17,1.17,1.17,1.17,1.17,1.18,1.18,1.18,1.18,1.19,1.19,1.19,1.19,1.19,1.2,1.2,1.2,1.2,1.2,1.21,1.21,1.21,1.21,1.21,1.21,1.22,1.22,1.22,1.22,1.22,1.22,1.23,1.23,1.23,1.23,1.23,1.23,1.24,1.24,1.24,1.24,1.24,1.24,1.24,1.24,1.24,1.25,1.25,1.25,1.25,1.25,1.25,1.25,1.25,1.25,1.25,1.25,1.26,1.26,1.26,1.26,1.26,1.26,1.26,1.26,1.26,1.26,1.26,1.26,1.26,1.26,1.26,1.26,1.26,1.26,1.26,1.26,1.26,1.26,1.26,1.26,1.26,1.26,1.26,1.26,1.26,1.26,1.26,1.26,1.26,1.26,1.26,1.26,1.25,1.25,1.25,1.25,1.25,1.25,1.25,1.25,1.25,1.25,1.25,1.24,1.24,1.24,1.24,1.24,1.24,1.24,1.24,1.24,1.23,1.23,1.23,1.23,1.23,1.23,1.22,1.22,1.22,1.22,1.22,1.22,1.21,1.21,1.21,1.21,1.21,1.21,1.2,1.2,1.2,1.2,1.2,1.19,1.19,1.19,1.19,1.19,1.18,1.18,1.18,1.18,1.17,1.17,1.17,1.17,1.17,1.16,1.16,1.16,1.16,1.15,1.15,1.15,1.15,1.14,1.14,1.14,1.14,1.13,1.13,1.13,1.12,1.12,1.12,1.12,1.11,1.11,1.11,1.1,1.1,1.1,1.1,1.09,1.09,1.09,1.08,1.08,1.08,1.07,1.07,1.07,1.06,1.06,1.06,1.06,1.05,1.05,1.05,1.04,1.04,1.04,1.03,1.03,1.02,1.02,1.02,1.01,1.01,1.01
1.41,1.42,1.42,1.43,1.43,1.43,1.44,1.44,1.45,1.45,1.46,1.46,1.47,1.47,1.48,1.48,1.49,1.49,1.5,1.5,1.5,1.51,1.51,1.52,1.52,1.53,1.53,1.53,1.54,1.54,1.55,1.55,1.55,1.56,1.56,1.57,1.57,1.57,1.58,1.58,1.59,1.59,1.59,1.6,1.6,1.6,1.61,1.61,1.61,1.62,1.62,1.62,1.63,1.63,1.63,1.64,1.64,1.64,1.65,1.65,1.65,1.66,1.66,1.66,1.67,1.67,1.67,1.67,1.68,1.68,1.68,1.69,1.69,1.69,1.69,1.7,1.7,1.7,1.7,1.71,1.71,1.71,1.71,1.71,1.72,1.72,1.72,1.72,1.73,1.73,1.73,1.73,1.73,1.73,1.74,1.74,1.74,1.74,1.74,1.74,1.75,1.75,1.75,1.75,1.75,1.75,1.75,1.75,1.76,1.76,1.76,1.76,1.76,1.76,1.76,1.76,1.76,1.76,1.76,1.76,1.76,1.76,1.77,1.77,1.77,1.77,1.77,1.77,1.77,1.77,1.77,1.77,1.77,1.77,1.76,1.76,1.76,1.76,1.76,1.76,1.76,1.76,1.76,1.76,1.76,1.76,1.76,1.76,1.75,1.75,1.75,1.75,1.75,1.75,1.75,1.75,1.74,1.74,1.74,1.74,1.74,1.74,1.73,1.73,1.73,1.73,1.73,1.73,1.72,1.72,1.72,1.72,1.71,1.71,1.71,1.71,1.71,1.7,1.7,1.7,1.7,1.69,1.69,1.69,1.69,1.68,1.68,1.68,1.67,1.67,1.67,1.67,1.66,1.66,1.66,1.65,1.65,1.65,1.64,1.64,1.64,1.63,1.63,1.63,1.62,1.62,1.62,1.61,1.61,1.61,1.6,1.6,1.6,1.59,1.59,1.59,1.58,1.58,1.57,1.57,1.57,1.56,1.56,1.55,1.55,1.55,1.54,1.54,1.53,1.53,1.53,1.52,1.52,1.51,1.51,1.5,1.5,1.5,1.49,1.49,1.48,1.48,1.47,1.47,1.46,1.46,1.45,1.45,1.44,1.44,1.43,1.43,1.43,1.42,1.42,1.41
1.81,1.82,1.83,1.83,1.84,1.84,1.85,1.86,1.86,1.87,1.88,1.88,1.89,1.89,1.9,1.91,1.91,1.92,1.92,1.93,1.93,1.94,1.94,1.95,1.96,1.96,1.97,1.97,1.98,1.98,1.99,1.99,2.0,2.0,2.01,2.01,2.02,2.02,2.03,2.03,2.04,2.04,2.05,2.05,2.06,2.06,2.07,2.07,2.08,2.08,2.08,2.09,2.09,2.1,2.1,2.11,2.11,2.11,2.12,2.12,2.13,2.13,2.13,2.14,2.14,2.15,2.15,2.15,2.16,2.16,2.16,2.17,2.17,2.17,2.18,2.18,2.18,2.19,2.19,2.19,2.2,2.2,2.2,2.2,2.21,2.21,2.21,2.22,2.22,2.22,2.22,2.23,2.23,2.23,2.23,2.23,2.24,2.24,2.24,2.24,2.24,2.25,2.25,2.25,2.25,2.25,2.25,2.26,2.26,2.26,2.26,2.26,2.26,2.26,2.26,2.27,2.27,2.27,2.27,2.27,2.27,2.27,2.27,2.27,2.27,2.27,2.27,2.27,2.27,2.27,2.27,2.27,2.27,2.27,2.27,2.27,2.27,2.27,2.27,2.27,2.27,2.26,2.26,2.26,2.26,2.26,2.26,2.26,2.26,2.25,2.25,2.25,2.25,2.25,2.25,2.24,2.24,2.24,2.24,2.24,2.23,2.23,2.23,2.23,2.23,2.22,2.22,2.22,2.22,2.21,2.21,2.21,2.2,2.2,2.2,2.2,2.19,2.19,2.19,2.18,2.18,2.18,2.17,2.17,2.17,2.16,2.16,2.16,2.15,2.15,2.15,2.14,2.14,2.13,2.13,2.13,2.12,2.12,2.11,2.11,2.11,2.1,2.1,2.09,2.09,2.08,2.08,2.08,2.07,2.07,2.06,2.06,2.05,2.05,2.04,2.04,2.03,2.03,2.02,2.02,2.01,2.01,2.0,2.0,1.99,1.99,1.98,1.98,1.97,1.97,1.96,1.96,1.95,1.94,1.94,1.93,1.93,1.92,1.92,1.91,1.91,1.9,1.89,1.89,1.88,1.88,1.87,1.86,1.86,1.85,1.84,1.84,1.83,1.83,1.82,1.81
2.22,2.22,2.23,2.24,2.25,2.25,2.26,2.27,2.28,2.28,2.29,2.3,2.31,2.31,2.32,2.33,2.34,2.34,2.35,2.36,2.36,2.37,2.38,2.38,2.39,2.4,2.4,2.41,2.42,2.42,2.43,2.44,2.44,2.45,2.45,2.46,2.47,2.47,2.48,2.49,2.49,2.5,2.5,2.51,2.51,2.52,2.53,2.53,2.54,2.54,2.55,2.55,2.56,2.56,2.57,2.57,2.58,2.58,2.59,2.59,2.6,2.6,2.61,2.61,2.62,2.62,2.63,2.63,2.64,2.64,2.64,2.65,2.65,2.66,2.66,2.66,2.67,2.67,2.68,2.68,2.68,2.69,2.69,2.69,2.7,2.7,2.7,2.71,2.71,2.71,2.72,2.72,2.72,2.73,2.73,2.73,2.73,2.74,2.74,2.74,2.74,2.75,2.75,2.75,2.75,2.75,2.76,2.76,2.76,2.76,2.76,2.76,2.76,2.77,2.77,2.77,2.77,2.77,2.77,2.77,2.77,2.77,2.77,2.77,2.77,2.77,2.77,2.77,2.77,2.77,2.77,2.77,2.77,2.77,2.77,2.77,2.77,2.77,2.77,2.77,2.77,2.77,2.77,2.76,2.76,2.76,2.76,2.76,2.76,2.76,2.75,2.75,2.75,2.75,2.75,2.74,2.74,2.74,2.74,2.73,2.73,2.73,2.73,2.72,2.72,2.72,2.71,2.71,2.71,2.7,2.7,2.7,2.69,2.69,2.69,2.68,2.68,2.68,2.67,2.67,2.66,2.66,2.66,2.65,2.65,2.64,2.64,2.64,2.63,2.63,2.62,2.62,2.61,2.61,2.6,2.6,2.59,2.59,2.58,2.58,2.57,2.57,2.56,2.56,2.55,2.55,2.54,2.54,2.53,2.53,2.52,2.51,2.51,2.5,2.5,2.49,2.49,2.48,2.47,2.47,2.46,2.45,2.45,2.44,2.44,2.43,2.42,2.42,2.41,2.4,2.4,2.39,2.38,2.38,2.37,2.36,2.36,2.35,2.34,2.34,2.33,2.32,2.31,2.31,2.3,2.29,2.28,2.28,2.27,2.26,2.25,2.25,2.24,2.23,2.22,2.22
2.62,2.63,2.64,2.65,2.66,2.66,2.67,2.68,2.69,2.7,2.71,2.72,2.73,2.73,2.74,2.75,2.76,2.77,2.78,2.78,2.79,2.8,2.81,2.82,2.83,2.83,2.84,2.85,2.86,2.86,2.87,2.88,2.89,2.89,2.9,2.91,2.92,2.92,2.93,2.94,2.94,2.95,2.96,2.96,2.97,2.98,2.98,2.99,3.0,3.0,3.01,3.02,3.02,3.03,3.04,3.04,3.05,3.05,3.06,3.07,3.07,3.08,3.08,3.09,3.09,3.1,3.1,3.11,3.11,3.12,3.12,3.13,3.13,3.14,3.14,3.15,3.15,3.16,3.16,3.17,3.17,3.18,3.18,3.18,3.19,3.19,3.2,3.2,3.2,3.21,3.21,3.21,3.22,3.22,3.22,3.23,3.23,3.23,3.24,3.24,3.24,3.24,3.25,3.25,3.25,3.25,3.26,3.26,3.26,3.26,3.26,3.27,3.27,3.27,3.27,3.27,3.27,3.27,3.27,3.28,3.28,3.28,3.28,3.28,3.28,3.28,3.28,3.28,3.28,3.28,3.28,3.28,3.28,3.28,3.28,3.28,3.28,3.27,3.27,3.27,3.27,3.27,3.27,3.27,3.27,3.26,3.26,3.26,3.26,3.26,3.25,3.25,3.25,3.25,3.24,3.24,3.24,3.24,3.23,3.23,3.23,3.22,3.22,3.22,3.21,3.21,3.21,3.2,3.2,3.2,3.19,3.19,3.18,3.18,3.18,3.17,3.17,3.16,3.16,3.15,3.15,3.14,3.14,3.13,3.13,3.12,3.12,3.11,3.11,3.1,3.1,3.09,3.09,3.08,3.08,3.07,3.07,3.06,3.05,3.05,3.04,3.04,3.03,3.02,3.02,3.01,3.0,3.0,2.99,2.98,2.98,2.97,2.96,2.96,2.95,2.94,2.94,2.93,2.92,2.92,2.91,2.9,2.89,2.89,2.88,2.87,2.86,2.86,2.85,2.84,2.83,2.83,2.82,2.81,2.8,2.79,2.78,2.78,2.77,2.76,2.75,2.74,2.73,2.73,2.72,2.71,2.7,2.69,2.68,2.67,2.66,2.66,2.65,2.64,2.63,2.62
3.02,3.03,3.04,3.05,3.06,3.07,3.08,3.09,3.11,3.12,3.13,3.14,3.15,3.16,3.16,3.17,3.18,3.19,3.2,3.21,3.22,3.23,3.24,3.25,3.26,3.27,3.28,3.29,3.3,3.3,3.31,3.32,3.33,3.34,3.35,3.36,3.36,3.37,3.38,3.39,3.4,3.4,3.41,3.42,3.43,3.44,3.44,3.45,3.46,3.47,3.47,3.48,3.49,3.5,3.5,3.51,3.52,3.52,3.53,3.54,3.54,3.55,3.56,3.56,3.57,3.58,3.58,3.59,3.59,3.6,3.61,3.61,3.62,3.62,3.63,3.63,3.64,3.64,3.65,3.65,3.66,3.66,3.67,3.67,3.68,3.68,3.69,3.69,3.7,3.7,3.7,3.71,3.71,3.72,3.72,3.72,3.73,3.73,3.73,3.74,3.74,3.74,3.75,3.75,3.75,3.75,3.76,3.76,3.76,3.76,3.77,3.77,3.77,3.77,3.77,3.77,3.78,3.78,3.78,3.78,3.78,3.78,3.78,3.78,3.78,3.78,3.78,3.78,3.78,3.78,3.78,3.78,3.78,3.78,3.78,3.78,3.78,3.78,3.78,3.78,3.77,3.77,3.77,3.77,3.77,3.77,3.76,3.76,3.76,3.76,3.75,3.75,3.75,3.75,3.74,3.74,3.74,3.73,3.73,3.73,3.72,3.72,3.72,3.71,3.71,3.7,3.7,3.7,3.69,3.69,3.68,3.68,3.67,3.67,3.66,3.66,3.65,3.65,3.64,3.64,3.63,3.63,3.62,3.62,3.61,3.61,3.6,3.59,3.59,3.58,3.58,3.57,3.56,3.56,3.55,3.54,3.54,3.53,3.52,3.52,3.51,3.5,3.5,3.49,3.48,3.47,3.47,3.46,3.45,3.44,3.44,3.43,3.42,3.41,3.4,3.4,3.39,3.38,3.37,3.36,3.36,3.35,3.34,3.33,3.32,3.31,3.3,3.3,3.29,3.28,3.27,3.26,3.25,3.24,3.23,3.22,3.21,3.2,3.19,3.18,3.17,3.16,3.16,3.15,3.14,3.13,3.12,3.11,3.09,3.08,3.07,3.06,3.05,3.04,3.03,3.02
3.42,3.44,3.45,3.46,3.47,3.48,3.5,3.51,3.52,3.53,3.54,3.55,3.56,3.58,3.59,3.6,3.61,3.62,3.63,3.64,3.65,3.66,3.67,3.68,3.69,3.7,3.71,3.72,3.73,3.74,3.75,3.76,3.77,3.78,3.79,3.8,3.81,3.82,3.83,3.84,3.85,3.86,3.87,3.88,3.89,3.89,3.9,3.91,3.92,3.93,3.94,3.94,3.95,3.96,3.97,3.98,3.98,3.99,4.0,4.01,4.02,4.02,4.03,4.04,4.04,4.05,4.06,4.07,4.07,4.08,4.09,4.09,4.1,4.11,4.11,4.12,4.12,4.13,4.14,4.14,4.15,4.15,4.16,4.16,4.17,4.17,4.18,4.18,4.19,4.19,4.2,4.2,4.21,4.21,4.22,4.22,4.22,4.23,4.23,4.24,4.24,4.24,4.25,4.25,4.25,4.26,4.26,4.26,4.26,4.27,4.27,4.27,4.27,4.27,4.28,4.28,4.28,4.28,4.28,4.28,4.28,4.29,4.29,4.29,4.29,4.29,4.29,4.29,4.29,4.29,4.29,4.29,4.29,4.29,4.29,4.28,4.28,4.28,4.28,4.28,4.28,4.28,4.27,4.27,4.27,4.27,4.27,4.26,4.26,4.26,4.26,4.25,4.25,4.25,4.24,4.24,4.24,4.23,4.23,4.22,4.22,4.22,4.21,4.21,4.2,4.2,4.19,4.19,4.18,4.18,4.17,4.17,4.16,4.16,4.15,4.15,4.14,4.14,4.13,4.12,4.12,4.11,4.11,4.1,4.09,4.09,4.08,4.07,4.07,4.06,4.05,4.04,4.04,4.03,4.02,4.02,4.01,4.0,3.99,3.98,3.98,3.97,3.96,3.95,3.94,3.94,3.93,3.92,3.91,3.9,3.89,3.89,3.88,3.87,3.86,3.85,3.84,3.83,3.82,3.81,3.8,3.79,3.78,3.77,3.76,3.75,3.74,3.73,3.72,3.71,3.7,3.69,3.68,3.67,3.66,3.65,3.64,3.63,3.62,3.61,3.6,3.59,3.58,3.56,3.55,3.54,3.53,3.52,3.51,3.5,3.48,3.47,3.46,3.45,3.44,3.42
3.83,3.84,3.85,3.87,3.88,3.89,3.91,3.92,3.93,3.95,3.96,3.97,3.98,4.0,4.01,4.02,4.03,4.05,4.06,4.07,4.08,4.09,4.1,4.12,4.13,4.14,4.15,4.16,4.17,4.18,4.2,4.21,4.22,4.23,4.24,4.25,4.26,4.27,4.28,4.29,4.3,4.31,4.32,4.33,4.34,4.35,4.36,4.37,4.38,4.39,4.4,4.41,4.42,4.43,4.44,4.44,4.45,4.46,4.47,4.48,4.49,4.5,4.5,4.51,4.52,4.53,4.54,4.54,4.55,4.56,4.57,4.57,4.58,4.59,4.6,4.6,4.61,4.62,4.62,4.63,4.64,4.64,4.65,4.65,4.66,4.67,4.67,4.68,4.68,4.69,4.69,4.7,4.7,4.71,4.71,4.72,4.72,4.73,4.73,4.73,4.74,4.74,4.75,4.75,4.75,4.76,4.76,4.76,4.76,4.77,4.77,4.77,4.77,4.78,4.78,4.78,4.78,4.78,4.79,4.79,4.79,4.79,4.79,4.79,4.79,4.79,4.79,4.79,4.79,4.79,4.79,4.79,4.79,4.79,4.79,4.79,4.79,4.79,4.78,4.78,4.78,4.78,4.78,4.77,4.77,4.77,4.77,4.76,4.76,4.76,4.76,4.75,4.75,4.75,4.74,4.74,4.73,4.73,4.73,4.72,4.72,4.71,4.71,4.7,4.7,4.69,4.69,4.68,4.68,4.67,4.67,4.66,4.65,4.65,4.64,4.64,4.63,4.62,4.62,4.61,4.6,4.6,4.59,4.58,4.57,4.57,4.56,4.55,4.54,4.54,4.53,4.52,4.51,4.5,4.5,4.49,4.48,4.47,4.46,4.45,4.44,4.44,4.43,4.42,4.41,4.4,4.39,4.38,4.37,4.36,4.35,4.34,4.33,4.32,4.31,4.3,4.29,4.28,4.27,4.26,4.25,4.24,4.23,4.22,4.21,4.2,4.18,4.17,4.16,4.15,4.14,4.13,4.12,4.1,4.09,4.08,4.07,4.06,4.05,4.03,4.02,4.01,4.0,3.98,3.97,3.96,3.95,3.93,3.92,3.91,3.89,3.88,3.87,3.85,3.84,3.83
4.23,4.24,4.26,4.27,4.29,4.3,4.32,4.33,4.35,4.36,4.37,4.39,4.4,4.42,4.43,4.44,4.46,4.47,4.48,4.5,4.51,4.52,4.54,4.55,4.56,4.58,4.59,4.6,4.61,4.63,4.64,4.65,4.66,4.67,4.69,4.7,4.71,4.72,4.73,4.74,4.75,4.77,4.78,4.79,4.8,4.81,4.82,4.83,4.84,4.85,4.86,4.87,4.88,4.89,4.9,4.91,4.92,4.93,4.94,4.95,4.96,4.97,4.98,4.99,5.0,5.0,5.01,5.02,5.03,5.04,5.05,5.05,5.06,5.07,5.08,5.09,5.09,5.1,5.11,5.12,5.12,5.13,5.14,5.14,5.15,5.16,5.16,5.17,5.17,5.18,5.19,5.19,5.2,5.2,5.21,5.21,5.22,5.22,5.23,5.23,5.24,5.24,5.24,5.25,5.25,5.26,5.26,5.26,5.27,5.27,5.27,5.27,5.28,5.28,5.28,5.28,5.29,5.29,5.29,5.29,5.29,5.29,5.29,5.3,5.3,5.3,5.3,5.3,5.3,5.3,5.3,5.3,5.3,5.29,5.29,5.29,5.29,5.29,5.29,5.29,5.28,5.28,5.28,5.28,5.27,5.27,5.27,5.27,5.26,5.26,5.26,5.25,5.25,5.24,5.24,5.24,5.23,5.23,5.22,5.22,5.21,5.21,5.2,5.2,5.19,5.19,5.18,5.17,5.17,5.16,5.16,5.15,5.14,5.14,5.13,5.12,5.12,5.11,5.1,5.09,5.09,5.08,5.07,5.06,5.05,5.05,5.04,5.03,5.02,5.01,5.0,5.0,4.99,4.98,4.97,4.96,4.95,4.94,4.93,4.92,4.91,4.9,4.89,4.88,4.87,4.86,4.85,4.84,4.83,4.82,4.81,4.8,4.79,4.78,4.77,4.75,4.74,4.73,4.72,4.71,4.7,4.69,4.67,4.66,4.65,4.64,4.63,4.61,4.6,4.59,4.58,4.56,4.55,4.54,4.52,4.51,4.5,4.48,4.47,4.46,4.44,4.43,4.42,4.4,4.39,4.37,4.36,4.35,4.33,4.32,4.3,4.29,4.27,4.26,4.24,4.23
4.63,4.65,4.66,4.68,4.7,4.71,4.73,4.74,4.76,4.77,4.79,4.81,4.82,4.84,4.85,4.87,4.88,4.9,4.91,4.93,4.94,4.95,4.97,4.98,5.0,5.01,5.02,5.04,5.05,5.07,5.08,5.09,5.11,5.12,5.13,5.14,5.16,5.17,5.18,5.19,5.21,5.22,5.23,5.24,5.26,5.27,5.28,5.29,5.3,5.31,5.32,5.34,5.35,5.36,5.37,5.38,5.39,5.4,5.41,5.42,5.43,5.44,5.45,5.46,5.47,5.48,5.49,5.5,5.51,5.52,5.53,5.54,5.54,5.55,5.56,5.57,5.58,5.59,5.59,5.6,5.61,5.62,5.63,5.63,5.64,5.65,5.65,5.66,5.67,5.67,5.68,5.69,5.69,5.7,5.7,5.71,5.71,5.72,5.73,5.73,5.73,5.74,5.74,5.75,5.75,5.76,5.76,5.76,5.77,5.77,5.77,5.78,5.78,5.78,5.78,5.79,5.79,5.79,5.79,5.79,5.8,5.8,5.8,5.8,5.8,5.8,5.8,5.8,5.8,5.8,5.8,5.8,5.8,5.8,5.8,5.8,5.79,5.79,5.79,5.79,5.79,5.78,5.78,5.78,5.78,5.77,5.77,5.77,5.76,5.76,5.76,5.75,5.75,5.74,5.74,5.73,5.73,5.73,5.72,5.71,5.71,5.7,5.7,5.69,5.69,5.68,5.67,5.67,5.66,5.65,5.65,5.64,5.63,5.63,5.62,5.61,5.6,5.59,5.59,5.58,5.57,5.56,5.55,5.54,5.54,5.53,5.52,5.51,5.5,5.49,5.48,5.47,5.46,5.45,5.44,5.43,5.42,5.41,5.4,5.39,5.38,5.37,5.36,5.35,5.34,5.32,5.31,5.3,5.29,5.28,5.27,5.26,5.24,5.23,5.22,5.21,5.19,5.18,5.17,5.16,5.14,5.13,5.12,5.11,5.09,5.08,5.07,5.05,5.04,5.02,5.01,5.0,4.98,4.97,4.95,4.94,4.93,4.91,4.9,4.88,4.87,4.85,4.84,4.82,4.81,4.79,4.77,4.76,4.74,4.73,4.71,4.7,4.68,4.66,4.65,4.63
5.03,5.05,5.07,5.09,5.1,5.12,5.14,5.16,5.17,5.19,5.21,5.22,5.24,5.26,5.27,5.29,5.31,5.32,5.34,5.35,5.37,5.38,5.4,5.42,5.43,5.45,5.46,5.48,5.49,5.51,5.52,5.53,5.55,5.56,5.58,5.59,5.6,5.62,5.63,5.65,5.66,5.67,5.69,5.7,5.71,5.72,5.74,5.75,5.76,5.78,5.79,5.8,5.81,5.82,5.84,5.85,5.86,5.87,5.88,5.89,5.9,5.91,5.93,5.94,5.95,5.96,5.97,5.98,5.99,6.0,6.01,6.02,6.03,6.04,6.05,6.05,6.06,6.07,6.08,6.09,6.1,6.11,6.11,6.12,6.13,6.14,6.15,6.15,6.16,6.17,6.17,6.18,6.19,6.19,6.2,6.21,6.21,6.22,6.22,6.23,6.23,6.24,6.24,6.25,6.25,6.26,6.26,6.26,6.27,6.27,6.28,6.28,6.28,6.28,6.29,6.29,6.29,6.29,6.3,6.3,6.3,6.3,6.3,6.3,6.3,6.3,6.3,6.3,6.3,6.3,6.3,6.3,6.3,6.3,6.3,6.3,6.3,6.3,6.29,6.29,6.29,6.29,6.28,6.28,6.28,6.28,6.27,6.27,6.26,6.26,6.26,6.25,6.25,6.24,6.24,6.23,6.23,6.22,6.22,6.21,6.21,6.2,6.19,6.19,6.18,6.17,6.17,6.16,6.15,6.15,6.14,6.13,6.12,6.11,6.11,6.1,6.09,6.08,6.07,6.06,6.05,6.05,6.04,6.03,6.02,6.01,6.0,5.99,5.98,5.97,5.96,5.95,5.94,5.93,5.91,5.9,5.89,5.88,5.87,5.86,5.85,5.84,5.82,5.81,5.8,5.79,5.78,5.76,5.75,5.74,5.72,5.71,5.7,5.69,5.67,5.66,5.65,5.63,5.62,5.6,5.59,5.58,5.56,5.55,5.53,5.52,5.51,5.49,5.48,5.46,5.45,5.43,5.42,5.4,5.38,5.37,5.35,5.34,5.32,5.31,5.29,5.27,5.26,5.24,5.22,5.21,5.19,5.17,5.16,5.14,5.12,5.1,5.09,5.07,5.05,5.03
5.43,5.45,5.47,5.49,5.51,5.53,5.55,5.57,5.59,5.6,5.62,5.64,5.66,5.68,5.69,5.71,5.73,5.75,5.76,5.78,5.8,5.81,5.83,5.85,5.86,5.88,5.9,5.91,5.93,5.95,5.96,5.98,5.99,6.01,6.02,6.04,6.05,6.07,6.08,6.1,6.11,6.13,6.14,6.15,6.17,6.18,6.2,6.21,6.22,6.24,6.25,6.26,6.28,6.29,6.3,6.31,6.33,6.34,6.35,6.36,6.38,6.39,6.4,6.41,6.42,6.43,6.44,6.46,6.47,6.48,6.49,6.5,6.51,6.52,6.53,6.54,6.55,6.56,6.57,6.58,6.59,6.59,6.6,6.61,6.62,6.63,6.64,6.64,6.65,6.66,6.67,6.67,6.68,6.69,6.69,6.7,6.71,6.71,6.72,6.73,6.73,6.74,6.74,6.75,6.75,6.76,6.76,6.77,6.77,6.77,6.78,6.78,6.78,6.79,6.79,6.79,6.8,6.8,6.8,6.8,6.8,6.8,6.81,6.81,6.81,6.81,6.81,6.81,6.81,6.81,6.81,6.81,6.81,6.81,6.8,6.8,6.8,6.8,6.8,6.8,6.79,6.79,6.79,6.78,6.78,6.78,6.77,6.77,6.77,6.76,6.76,6.75,6.75,6.74,6.74,6.73,6.73,6.72,6.71,6.71,6.7,6.69,6.69,6.68,6.67,6.67,6.66,6.65,6.64,6.64,6.63,6.62,6.61,6.6,6.59,6.59,6.58,6.57,6.56,6.55,6.54,6.53,6.52,6.51,6.5,6.49,6.48,6.47,6.46,6.44,6.43,6.42,6.41,6.4,6.39,6.38,6.36,6.35,6.34,6.33,6.31,6.3,6.29,6.28,6.26,6.25,6.24,6.22,6.21,6.2,6.18,6.17,6.15,6.14,6.13,6.11,6.1,6.08,6.07,6.05,6.04,6.02,6.01,5.99,5.98,5.96,5.95,5.93,5.91,5.9,5.88,5.86,5.85,5.83,5.81,5.8,5.78,5.76,5.75,5.73,5.71,5.69,5.68,5.66,5.64,5.62,5.6,5.59,5.57,5.55,5.53,5.51,5.49,5.47,5.45,5.43
5.84,5.86,5.88,5.9,5.92,5.94,5.96,5.98,6.0,6.02,6.04,6.06,6.08,6.1,6.11,6.13,6.15,6.17,6.19,6.21,6.23,6.24,6.26,6.28,6.3,6.32,6.33,6.35,6.37,6.38,6.4,6.42,6.44,6.45,6.47,6.48,6.5,6.52,6.53,6.55,6.56,6.58,6.59,6.61,6.62,6.64,6.65,6.67,6.68,6.7,6.71,6.73,6.74,6.75,6.77,6.78,6.8,6.81,6.82,6.83,6.85,6.86,6.87,6.89,6.9,6.91,6.92,6.93,6.95,6.96,6.97,6.98,6.99,7.0,7.01,7.02,7.03,7.04,7.05,7.06,7.07,7.08,7.09,7.1,7.11,7.12,7.13,7.14,7.14,7.15,7.16,7.17,7.18,7.18,7.19,7.2,7.2,7.21,7.22,7.22,7.23,7.24,7.24,7.25,7.25,7.26,7.26,7.27,7.27,7.27,7.28,7.28,7.29,7.29,7.29,7.3,7.3,7.3,7.3,7.3,7.31,7.31,7.31,7.31,7.31,7.31,7.31,7.31,7.31,7.31,7.31,7.31,7.31,7.31,7.31,7.31,7.3,7.3,7.3,7.3,7.3,7.29,7.29,7.29,7.28,7.28,7.27,7.27,7.27,7.26,7.26,7.25,7.25,7.24,7.24,7.23,7.22,7.22,7.21,7.2,7.2,7.19,7.18,7.18,7.17,7.16,7.15,7.14,7.14,7.13,7.12,7.11,7.1,7.09,7.08,7.07,7.06,7.05,7.04,7.03,7.02,7.01,7.0,6.99,6.98,6.97,6.96,6.95,6.93,6.92,6.91,6.9,6.89,6.87,6.86,6.85,6.83,6.82,6.81,6.8,6.78,6.77,6.75,6.74,6.73,6.71,6.7,6.68,6.67,6.65,6.64,6.62,6.61,6.59,6.58,6.56,6.55,6.53,6.52,6.5,6.48,6.47,6.45,6.44,6.42,6.4,6.38,6.37,6.35,6.33,6.32,6.3,6.28,6.26,6.24,6.23,6.21,6.19,6.17,6.15,6.13,6.11,6.1,6.08,6.06,6.04,6.02,6.0,5.98,5.96,5.94,5.92,5.9,5.88,5.86,5.84
6.24,6.26,6.28,6.3,6.33,6.35,6.37,6.39,6.41,6.43,6.45,6.47,6.49,6.52,6.54,6.56,6.58,6.6,6.62,6.64,6.65,6.67,6.69,6.71,6.73,6.75,6.77,6.79,6.81,6.82,6.84,6.86,6.88,6.9,6.91,6.93,6.95,6.97,6.98,7.0,7.02,7.03,7.05,7.07,7.08,7.1,7.11,7.13,7.14,7.16,7.17,7.19,7.21,7.22,7.23,7.25,7.26,7.28,7.29,7.31,7.32,7.33,7.35,7.36,7.37,7.39,7.4,7.41,7.42,7.44,7.45,7.46,7.47,7.48,7.49,7.51,7.52,7.53,7.54,7.55,7.56,7.57,7.58,7.59,7.6,7.61,7.62,7.63,7.64,7.65,7.65,7.66,7.67,7.68,7.69,7.69,7.7,7.71,7.71,7.72,7.73,7.73,7.74,7.75,7.75,7.76,7.76,7.77,7.77,7.78,7.78,7.78,7.79,7.79,7.79,7.8,7.8,7.8,7.81,7.81,7.81,7.81,7.81,7.81,7.82,7.82,7.82,7.82,7.82,7.82,7.82,7.82,7.81,7.81,7.81,7.81,7.81,7.81,7.8,7.8,7.8,7.79,7.79,7.79,7.78,7.78,7.78,7.77,7.77,7.76,7.76,7.75,7.75,7.74,7.73,7.73,7.72,7.71,7.71,7.7,7.69,7.69,7.68,7.67,7.66,7.65,7.65,7.64,7.63,7.62,7.61,7.6,7.59,7.58,7.57,7.56,7.55,7.54,7.53,7.52,7.51,7.49,7.48,7.47,7.46,7.45,7.44,7.42,7.41,7.4,7.39,7.37,7.36,7.35,7.33,7.32,7.31,7.29,7.28,7.26,7.25,7.23,7.22,7.21,7.19,7.17,7.16,7.14,7.13,7.11,7.1,7.08,7.07,7.05,7.03,7.02,7.0,6.98,6.97,6.95,6.93,6.91,6.9,6.88,6.86,6.84,6.82,6.81,6.79,6.77,6.75,6.73,6.71,6.69,6.67,6.65,6.64,6.62,6.6,6.58,6.56,6.54,6.52,6.49,6.47,6.45,6.43,6.41,6.39,6.37,6.35,6.33,6.3,6.28,6.26,6.24
6.64,6.66,6.69,6.71,6.73,6.76,6.78,6.8,6.82,6.85,6.87,6.89,6.91,6.93,6.96,6.98,7.0,7.02,7.04,7.06,7.08,7.1,7.12,7.14,7.16,7.18,7.2,7.22,7.24,7.26,7.28,7.3,7.32,7.34,7.36,7.38,7.4,7.41,7.43,7.45,7.47,7.49,7.5,7.52,7.54,7.55,7.57,7.59,7.6,7.62,7.64,7.65,7.67,7.68,7.7,7.72,7.73,7.75,7.76,7.78,7.79,7.81,7.82,7.83,7.85,7.86,7.88,7.89,7.9,7.91,7.93,7.94,7.95,7.97,7.98,7.99,8.0,8.01,8.02,8.04,8.05,8.06,8.07,8.08,8.09,8.1,8.11,8.12,8.13,8.14,8.15,8.16,8.16,8.17,8.18,8.19,8.2,8.2,8.21,8.22,8.23,8.23,8.24,8.24,8.25,8.26,8.26,8.27,8.27,8.28,8.28,8.29,8.29,8.29,8.3,8.3,8.3,8.31,8.31,8.31,8.31,8.31,8.32,8.32,8.32,8.32,8.32,8.32,8.32,8.32,8.32,8.32,8.32,8.32,8.31,8.31,8.31,8.31,8.31,8.3,8.3,8.3,8.29,8.29,8.29,8.28,8.28,8.27,8.27,8.26,8.26,8.25,8.24,8.24,8.23,8.23,8.22,8.21,8.2,8.2,8.19,8.18,8.17,8.16,8.16,8.15,8.14,8.13,8.12,8.11,8.1,8.09,8.08,8.07,8.06,8.05,8.04,8.02,8.01,8.0,7.99,7.98,7.97,7.95,7.94,7.93,7.91,7.9,7.89,7.88,7.86,7.85,7.83,7.82,7.81,7.79,7.78,7.76,7.75,7.73,7.72,7.7,7.68,7.67,7.65,7.64,7.62,7.6,7.59,7.57,7.55,7.54,7.52,7.5,7.49,7.47,7.45,7.43,7.41,7.4,7.38,7.36,7.34,7.32,7.3,7.28,7.26,7.24,7.22,7.2,7.18,7.16,7.14,7.12,7.1,7.08,7.06,7.04,7.02,7.0,6.98,6.96,6.93,6.91,6.89,6.87,6.85,6.82,6.8,6.78,6.76,6.73,6.71,6.69,6.66,6.64
7.04,7.07,7.09,7.11,7.14,7.16,7.19,7.21,7.24,7.26,7.28,7.31,7.33,7.35,7.38,7.4,7.42,7.44,7.47,7.49,7.51,7.53,7.56,7.58,7.6,7.62,7.64,7.66,7.68,7.7,7.72,7.74,7.76,7.78,7.8,7.82,7.84,7.86,7.88,7.9,7.92,7.94,7.96,7.98,7.99,8.01,8.03,8.05,8.06,8.08,8.1,8.12,8.13,8.15,8.17,8.18,8.2,8.22,8.23,8.25,8.26,8.28,8.29,8.31,8.32,8.34,8.35,8.37,8.38,8.39,8.41,8.42,8.43,8.45,8.46,8.47,8.49,8.5,8.51,8.52,8.53,8.55,8.56,8.57,8.58,8.59,8.6,8.61,8.62,8.63,8.64,8.65,8.66,8.67,8.68,8.68,8.69,8.7,8.71,8.72,8.72,8.73,8.74,8.74,8.75,8.76,8.76,8.77,8.77,8.78,8.78,8.79,8.79,8.8,8.8,8.8,8.81,8.81,8.81,8.81,8.82,8.82,8.82,8.82,8.82,8.82,8.82,8.82,8.82,8.82,8.82,8.82,8.82,8.82,8.82,8.82,8.81,8.81,8.81,8.81,8.8,8.8,8.8,8.79,8.79,8.78,8.78,8.77,8.77,8.76,8.76,8.75,8.74,8.74,8.73,8.72,8.72,8.71,8.7,8.69,8.68,8.68,8.67,8.66,8.65,8.64,8.63,8.62,8.61,8.6,8.59,8.58,8.57,8.56,8.55,8.53,8.52,8.51,8.5,8.49,8.47,8.46,8.45,8.43,8.42,8.41,8.39,8.38,8.37,8.35,8.34,8.32,8.31,8.29,8.28,8.26,8.25,8.23,8.22,8.2,8.18,8.17,8.15,8.13,8.12,8.1,8.08,8.06,8.05,8.03,8.01,7.99,7.98,7.96,7.94,7.92,7.9,7.88,7.86,7.84,7.82,7.8,7.78,7.76,7.74,7.72,7.7,7.68,7.66,7.64,7.62,7.6,7.58,7.56,7.53,7.51,7.49,7.47,7.44,7.42,7.4,7.38,7.35,7.33,7.31,7.28,7.26,7.24,7.21,7.19,7.16,7.14,7.11,7.09,7.07,7.04
7.44,7.47,7.49,7.52,7.55,7.57,7.6,7.62,7.65,7.67,7.7,7.72,7.75,7.77,7.8,7.82,7.84,7.87,7.89,7.92,7.94,7.96,7.99,8.01,8.03,8.05,8.08,8.1,8.12,8.14,8.16,8.19,8.21,8.23,8.25,8.27,8.29,8.31,8.33,8.35,8.37,8.39,8.41,8.43,8.45,8.47,8.49,8.51,8.52,8.54,8.56,8.58,8.6,8.61,8.63,8.65,8.67,8.68,8.7,8.72,8.73,8.75,8.77,8.78,8.8,8.81,8.83,8.84,8.86,8.87,8.89,8.9,8.92,8.93,8.94,8.96,8.97,8.98,9.0,9.01,9.02,9.03,9.05,9.06,9.07,9.08,9.09,9.1,9.11,9.12,9.13,9.14,9.15,9.16,9.17,9.18,9.19,9.2,9.21,9.21,9.22,9.23,9.24,9.24,9.25,9.26,9.26,9.27,9.27,9.28,9.28,9.29,9.29,9.3,9.3,9.31,9.31,9.31,9.31,9.32,9.32,9.32,9.32,9.32,9.33,9.33,9.33,9.33,9.33,9.33,9.33,9.33,9.32,9.32,9.32,9.32,9.32,9.31,9.31,9.31,9.31,9.3,9.3,9.29,9.29,9.28,9.28,9.27,9.27,9.26,9.26,9.25,9.24,9.24,9.23,9.22,9.21,9.21,9.2,9.19,9.18,9.17,9.16,9.15,9.14,9.13,9.12,9.11,9.1,9.09,9.08,9.07,9.06,9.05,9.03,9.02,9.01,9.0,8.98,8.97,8.96,8.94,8.93,8.92,8.9,8.89,8.87,8.86,8.84,8.83,8.81,8.8,8.78,8.77,8.75,8.73,8.72,8.7,8.68,8.67,8.65,8.63,8.61,8.6,8.58,8.56,8.54,8.52,8.51,8.49,8.47,8.45,8.43,8.41,8.39,8.37,8.35,8.33,8.31,8.29,8.27,8.25,8.23,8.21,8.19,8.16,8.14,8.12,8.1,8.08,8.05,8.03,8.01,7.99,7.96,7.94,7.92,7.89,7.87,7.84,7.82,7.8,7.77,7.75,7.72,7.7,7.67,7.65,7.62,7.6,7.57,7.55,7.52,7.49,7.47,7.44
7.84,7.87,7.9,7.92,7.95,7.98,8.01,8.03,8.06,8.09,8.11,8.14,8.17,8.19,8.22,8.24,8.27,8.29,8.32,8.34,8.37,8.39,8.42,8.44,8.46,8.49,8.51,8.53,8.56,8.58,8.6,8.63,8.65,8.67,8.69,8.72,8.74,8.76,8.78,8.8,8.82,8.84,8.86,8.88,8.91,8.93,8.95,8.96,8.98,9.0,9.02,9.04,9.06,9.08,9.1,9.12,9.13,9.15,9.17,9.19,9.2,9.22,9.24,9.26,9.27,9.29,9.3,9.32,9.34,9.35,9.37,9.38,9.4,9.41,9.43,9.44,9.45,9.47,9.48,9.49,9.51,9.52,9.53,9.55,9.56,9.57,9.58,9.59,9.6,9.62,9.63,9.64,9.65,9.66,9.67,9.68,9.68,9.69,9.7,9.71,9.72,9.73,9.73,9.74,9.75,9.76,9.76,9.77,9.77,9.78,9.78,9.79,9.79,9.8,9.8,9.81,9.81,9.81,9.82,9.82,9.82,9.82,9.83,9.83,9.83,9.83,9.83,9.83,9.83,9.83,9.83,9.83,9.83,9.83,9.82,9.82,9.82,9.82,9.81,9.81,9.81,9.8,9.8,9.79,9.79,9.78,9.78,9.77,9.77,9.76,9.76,9.75,9.74,9.73,9.73,9.72,9.71,9.7,9.69,9.68,9.68,9.67,9.66,9.65,9.64,9.63,9.62,9.6,9.59,9.58,9.57,9.56,9.55,9.53,9.52,9.51,9.49,9.48,9.47,9.45,9.44,9.43,9.41,9.4,9.38,9.37,9.35,9.34,9.32,9.3,9.29,9.27,9.26,9.24,9.22,9.2,9.19,9.17,9.15,9.13,9.12,9.1,9.08,9.06,9.04,9.02,9.0,8.98,8.96,8.95,8.93,8.91,8.88,8.86,8.84,8.82,8.8,8.78,8.76,8.74,8.72,8.69,8.67,8.65,8.63,8.6,8.58,8.56,8.53,8.51,8.49,8.46,8.44,8.42,8.39,8.37,8.34,8.32,8.29,8.27,8.24,8.22,8.19,8.17,8.14,8.11,8.09,8.06,8.03,8.01,7.98,7.95,7.92,7.9,7.87,7.84
8.24,8.27,8.3,8.33,8.36,8.39,8.42,8.44,8.47,8.5,8.53,8.55,8.58,8.61,8.64,8.66,8.69,8.72,8.74,8.77,8.79,8.82,8.85,8.87,8.9,8.92,8.95,8.97,9.0,9.02,9.04,9.07,9.09,9.11,9.14,9.16,9.18,9.21,9.23,9.25,9.27,9.3,9.32,9.34,9.36,9.38,9.4,9.42,9.44,9.46,9.48,9.5,9.52,9.54,9.56,9.58,9.6,9.62,9.64,9.66,9.68,9.69,9.71,9.73,9.75,9.76,9.78,9.8,9.81,9.83,9.85,9.86,9.88,9.89,9.91,9.92,9.94,9.95,9.97,9.98,9.99,10.0,10.0,10.0,10.0,10.1,10.1,10.1,10.1,10.1,10.1,10.1,10.1,10.2,10.2,10.2,10.2,10.2,10.2,10.2,10.2,10.2,10.2,10.2,10.2,10.3,10.3,10.3,10.3,10.3,10.3,10.3,10.3,10.3,10.3,10.3,10.3,10.3,10.3,10.3,10.3,10.3,10.3,10.3,10.3,10.3,10.3,10.3,10.3,10.3,10.3,10.3,10.3,10.3,10.3,10.3,10.3,10.3,10.3,10.3,10.3,10.3,10.3,10.3,10.3,10.3,10.3,10.3,10.3,10.3,10.3,10.2,10.2,10.2,10.2,10.2,10.2,10.2,10.2,10.2,10.2,10.2,10.2,10.1,10.1,10.1,10.1,10.1,10.1,10.1,10.1,10.0,10.0,10.0,10.0,9.99,9.98,9.97,9.95,9.94,9.92,9.91,9.89,9.88,9.86,9.85,9.83,9.81,9.8,9.78,9.76,9.75,9.73,9.71,9.69,9.68,9.66,9.64,9.62,9.6,9.58,9.56,9.54,9.52,9.5,9.48,9.46,9.44,9.42,9.4,9.38,9.36,9.34,9.32,9.3,9.27,9.25,9.23,9.21,9.18,9.16,9.14,9.11,9.09,9.07,9.04,9.02,9.0,8.97,8.95,8.92,8.9,8.87,8.85,8.82,8.79,8.77,8.74,8.72,8.69,8.66,8.64,8.61,8.58,8.55,8.53,8.5,8.47,8.44,8.42,8.39,8.36,8.33,8.3,8.27,8.24
8.64,8.67,8.7,8.73,8.76,8.79,8.82,8.85,8.88,8.91,8.94,8.97,9.0,9.03,9.06,9.08,9.11,9.14,9.17,9.19,9.22,9.25,9.28,9.3,9.33,9.36,9.38,9.41,9.43,9.46,9.48,9.51,9.53,9.56,9.58,9.61,9.63,9.65,9.68,9.7,9.73,9.75,9.77,9.79,9.82,9.84,9.86,9.88,9.9,9.93,9.95,9.97,9.99,10.0,10.0,10.0,10.1,10.1,10.1,10.1,10.1,10.2,10.2,10.2,10.2,10.2,10.3,10.3,10.3,10.3,10.3,10.3,10.4,10.4,10.4,10.4,10.4,10.4,10.5,10.5,10.5,10.5,10.5,10.5,10.5,10.5,10.6,10.6,10.6,10.6,10.6,10.6,10.6,10.6,10.7,10.7,10.7,10.7,10.7,10.7,10.7,10.7,10.7,10.7,10.7,10.8,10.8,10.8,10.8,10.8,10.8,10.8,10.8,10.8,10.8,10.8,10.8,10.8,10.8,10.8,10.8,10.8,10.8,10.8,10.8,10.8,10.8,10.8,10.8,10.8,10.8,10.8,10.8,10.8,10.8,10.8,10.8,10.8,10.8,10.8,10.8,10.8,10.8,10.8,10.8,10.8,10.8,10.8,10.8,10.8,10.8,10.7,10.7,10.7,10.7,10.7,10.7,10.7,10.7,10.7,10.7,10.7,10.6,10.6,10.6,10.6,10.6,10.6,10.6,10.6,10.5,10.5,10.5,10.5,10.5,10.5,10.5,10.5,10.4,10.4,10.4,10.4,10.4,10.4,10.3,10.3,10.3,10.3,10.3,10.3,10.2,10.2,10.2,10.2,10.2,10.1,10.1,10.1,10.1,10.1,10.0,10.0,10.0,9.99,9.97,9.95,9.93,9.9,9.88,9.86,9.84,9.82,9.79,9.77,9.75,9.73,9.7,9.68,9.65,9.63,9.61,9.58,9.56,9.53,9.51,9.48,9.46,9.43,9.41,9.38,9.36,9.33,9.3,9.28,9.25,9.22,9.19,9.17,9.14,9.11,9.08,9.06,9.03,9.0,8.97,8.94,8.91,8.88,8.85,8.82,8.79,8.76,8.73,8.7,8.67,8.64
9.04,9.07,9.11,9.14,9.17,9.2,9.23,9.26,9.29,9.32,9.36,9.39,9.42,9.45,9.48,9.5,9.53,9.56,9.59,9.62,9.65,9.68,9.71,9.73,9.76,9.79,9.82,9.84,9.87,9.9,9.92,9.95,9.98,10.0,10.0,10.1,10.1,10.1,10.1,10.2,10.2,10.2,10.2,10.2,10.3,10.3,10.3,10.3,10.4,10.4,10.4,10.4,10.5,10.5,10.5,10.5,10.5,10.6,10.6,10.6,10.6,10.6,10.7,10.7,10.7,10.7,10.7,10.8,10.8,10.8,10.8,10.8,10.8,10.9,10.9,10.9,10.9,10.9,10.9,11.0,11.0,11.0,11.0,11.0,11.0,11.0,11.1,11.1,11.1,11.1,11.1,11.1,11.1,11.1,11.2,11.2,11.2,11.2,11.2,11.2,11.2,11.2,11.2,11.2,11.2,11.3,11.3,11.3,11.3,11.3,11.3,11.3,11.3,11.3,11.3,11.3,11.3,11.3,11.3,11.3,11.3,11.3,11.3,11.3,11.3,11.3,11.3,11.3,11.3,11.3,11.3,11.3,11.3,11.3,11.3,11.3,11.3,11.3,11.3,11.3,11.3,11.3,11.3,11.3,11.3,11.3,11.3,11.3,11.3,11.3,11.3,11.2,11.2,11.2,11.2,11.2,11.2,11.2,11.2,11.2,11.2,11.2,11.1,11.1,11.1,11.1,11.1,11.1,11.1,11.1,11.0,11.0,11.0,11.0,11.0,11.0,11.0,10.9,10.9,10.9,10.9,10.9,10.9,10.8,10.8,10.8,10.8,10.8,10.8,10.7,10.7,10.7,10.7,10.7,10.6,10.6,10.6,10.6,10.6,10.5,10.5,10.5,10.5,10.5,10.4,10.4,10.4,10.4,10.3,10.3,10.3,10.3,10.2,10.2,10.2,10.2,10.2,10.1,10.1,10.1,10.1,10.0,10.0,9.98,9.95,9.92,9.9,9.87,9.84,9.82,9.79,9.76,9.73,9.71,9.68,9.65,9.62,9.59,9.56,9.53,9.5,9.48,9.45,9.42,9.39,9.36,9.32,9.29,9.26,9.23,9.2,9.17,9.14,9.11,9.07,9.04
9.44,9.47,9.51,9.54,9.57,9.61,9.64,9.67,9.7,9.74,9.77,9.8,9.83,9.86,9.89,9.93,9.96,9.99,10.0,10.0,10.1,10.1,10.1,10.2,10.2,10.2,10.3,10.3,10.3,10.3,10.4,10.4,10.4,10.4,10.5,10.5,10.5,10.5,10.6,10.6,10.6,10.7,10.7,10.7,10.7,10.8,10.8,10.8,10.8,10.8,10.9,10.9,10.9,10.9,11.0,11.0,11.0,11.0,11.0,11.1,11.1,11.1,11.1,11.1,11.2,11.2,11.2,11.2,11.2,11.3,11.3,11.3,11.3,11.3,11.4,11.4,11.4,11.4,11.4,11.4,11.5,11.5,11.5,11.5,11.5,11.5,11.5,11.6,11.6,11.6,11.6,11.6,11.6,11.6,11.6,11.7,11.7,11.7,11.7,11.7,11.7,11.7,11.7,11.7,11.7,11.8,11.8,11.8,11.8,11.8,11.8,11.8,11.8,11.8,11.8,11.8,11.8,11.8,11.8,11.8,11.8,11.8,11.8,11.8,11.8,11.8,11.8,11.8,11.8,11.8,11.8,11.8,11.8,11.8,11.8,11.8,11.8,11.8,11.8,11.8,11.8,11.8,11.8,11.8,11.8,11.8,11.8,11.8,11.8,11.8,11.8,11.7,11.7,11.7,11.7,11.7,11.7,11.7,11.7,11.7,11.7,11.6,11.6,11.6,11.6,11.6,11.6,11.6,11.6,11.5,11.5,11.5,11.5,11.5,11.5,11.5,11.4,11.4,11.4,11.4,11.4,11.4,11.3,11.3,11.3,11.3,11.3,11.2,11.2,11.2,11.2,11.2,11.1,11.1,11.1,11.1,11.1,11.0,11.0,11.0,11.0,11.0,10.9,10.9,10.9,10.9,10.8,10.8,10.8,10.8,10.8,10.7,10.7,10.7,10.7,10.6,10.6,10.6,10.5,10.5,10.5,10.5,10.4,10.4,10.4,10.4,10.3,10.3,10.3,10.3,10.2,10.2,10.2,10.1,10.1,10.1,10.0,10.0,9.99,9.96,9.93,9.89,9.86,9.83,9.8,9.77,9.74,9.7,9.67,9.64,9.61,9.57,9.54,9.51,9.47,9.44
9.84,9.87,9.91,9.94,9.98,10.0,10.0,10.1,10.1,10.1,10.2,10.2,10.2,10.3,10.3,10.3,10.4,10.4,10.4,10.5,10.5,10.5,10.6,10.6,10.6,10.7,10.7,10.7,10.7,10.8,10.8,10.8,10.9,10.9,10.9,10.9,11.0,11.0,11.0,11.1,11.1,11.1,11.1,11.2,11.2,11.2,11.2,11.3,11.3,11.3,11.3,11.4,11.4,11.4,11.4,11.4,11.5,11.5,11.5,11.5,11.6,11.6,11.6,11.6,11.6,11.7,11.7,11.7,11.7,11.7,11.8,11.8,11.8,11.8,11.8,11.9,11.9,11.9,11.9,11.9,11.9,12.0,12.0,12.0,12.0,12.0,12.0,12.0,12.1,12.1,12.1,12.1,12.1,12.1,12.1,12.2,12.2,12.2,12.2,12.2,12.2,12.2,12.2,12.2,12.2,12.3,12.3,12.3,12.3,12.3,12.3,12.3,12.3,12.3,12.3,12.3,12.3,12.3,12.3,12.3,12.3,12.3,12.3,12.3,12.3,12.3,12.3,12.3,12.3,12.3,12.3,12.3,12.3,12.3,12.3,12.3,12.3,12.3,12.3,12.3,12.3,12.3,12.3,12.3,12.3,12.3,12.3,12.3,12.3,12.3,12.3,12.2,12.2,12.2,12.2,12.2,12.2,12.2,12.2,12.2,12.2,12.1,12.1,12.1,12.1,12.1,12.1,12.1,12.0,12.0,12.0,12.0,12.0,12.0,12.0,11.9,11.9,11.9,11.9,11.9,11.9,11.8,11.8,11.8,11.8,11.8,11.7,11.7,11.7,11.7,11.7,11.6,11.6,11.6,11.6,11.6,11.5,11.5,11.5,11.5,11.4,11.4,11.4,11.4,11.4,11.3,11.3,11.3,11.3,11.2,11.2,11.2,11.2,11.1,11.1,11.1,11.1,11.0,11.0,11.0,10.9,10.9,10.9,10.9,10.8,10.8,10.8,10.7,10.7,10.7,10.7,10.6,10.6,10.6,10.5,10.5,10.5,10.4,10.4,10.4,10.3,10.3,10.3,10.2,10.2,10.2,10.1,10.1,10.1,10.0,10.0,9.98,9.94,9.91,9.87,9.84
10.2,10.3,10.3,10.3,10.4,10.4,10.5,10.5,10.5,10.6,10.6,10.6,10.7,10.7,10.7,10.8,10.8,10.8,10.9,10.9,10.9,11.0,11.0,11.0,11.1,11.1,11.1,11.1,11.2,11.2,11.2,11.3,11.3,11.3,11.4,11.4,11.4,11.4,11.5,11.5,11.5,11.6,11.6,11.6,11.6,11.7,11.7,11.7,11.7,11.8,11.8,11.8,11.8,11.9,11.9,11.9,11.9,12.0,12.0,12.0,12.0,12.1,12.1,12.1,12.1,12.1,12.2,12.2,12.2,12.2,12.2,12.3,12.3,12.3,12.3,12.3,12.4,12.4,12.4,12.4,12.4,12.4,12.5,12.5,12.5,12.5,12.5,12.5,12.6,12.6,12.6,12.6,12.6,12.6,12.6,12.6,12.7,12.7,12.7,12.7,12.7,12.7,12.7,12.7,12.7,12.7,12.8,12.8,12.8,12.8,12.8,12.8,12.8,12.8,12.8,12.8,12.8,12.8,12.8,12.8,12.8,12.8,12.8,12.8,12.8,12.8,12.8,12.8,12.8,12.8,12.8,12.8,12.8,12.8,12.8,12.8,12.8,12.8,12.8,12.8,12.8,12.8,12.8,12.8,12.8,12.8,12.8,12.8,12.8,12.8,12.7,12.7,12.7,12.7,12.7,12.7,12.7,12.7,12.7,12.7,12.6,12.6,12.6,12.6,12.6,12.6,12.6,12.6,12.5,12.5,12.5,12.5,12.5,12.5,12.4,12.4,12.4,12.4,12.4,12.4,12.3,12.3,12.3,12.3,12.3,12.2,12.2,12.2,12.2,12.2,12.1,12.1,12.1,12.1,12.1,12.0,12.0,12.0,12.0,11.9,11.9,11.9,11.9,11.8,11.8,11.8,11.8,11.7,11.7,11.7,11.7,11.6,11.6,11.6,11.6,11.5,11.5,11.5,11.4,11.4,11.4,11.4,11.3,11.3,11.3,11.2,11.2,11.2,11.1,11.1,11.1,11.1,11.0,11.0,11.0,10.9,10.9,10.9,10.8,10.8,10.8,10.7,10.7,10.7,10.6,10.6,10.6,10.5,10.5,10.5,10.4,10.4,10.3,10.3,10.3,10.2
10.6,10.7,10.7,10.8,10.8,10.8,10.9,10.9,10.9,11.0,11.0,11.0,11.1,11.1,11.1,11.2,11.2,11.3,11.3,11.3,11.4,11.4,11.4,11.5,11.5,11.5,11.6,11.6,11.6,11.6,11.7,11.7,11.7,11.8,11.8,11.8,11.9,11.9,11.9,11.9,12.0,12.0,12.0,12.1,12.1,12.1,12.1,12.2,12.2,12.2,12.3,12.3,12.3,12.3,12.4,12.4,12.4,12.4,12.5,12.5,12.5,12.5,12.5,12.6,12.6,12.6,12.6,12.7,12.7,12.7,12.7,12.7,12.8,12.8,12.8,12.8,12.8,12.9,12.9,12.9,12.9,12.9,12.9,13.0,13.0,13.0,13.0,13.0,13.0,13.1,13.1,13.1,13.1,13.1,13.1,13.1,13.2,13.2,13.2,13.2,13.2,13.2,13.2,13.2,13.2,13.2,13.3,13.3,13.3,13.3,13.3,13.3,13.3,13.3,13.3,13.3,13.3,13.3,13.3,13.3,13.3,13.3,13.3,13.3,13.3,13.3,13.3,13.4,13.4,13.3,13.3,13.3,13.3,13.3,13.3,13.3,13.3,13.3,13.3,13.3,13.3,13.3,13.3,13.3,13.3,13.3,13.3,13.3,13.3,13.3,13.2,13.2,13.2,13.2,13.2,13.2,13.2,13.2,13.2,13.2,13.1,13.1,13.1,13.1,13.1,13.1,13.1,13.0,13.0,13.0,13.0,13.0,13.0,12.9,12.9,12.9,12.9,12.9,12.9,12.8,12.8,12.8,12.8,12.8,12.7,12.7,12.7,12.7,12.7,12.6,12.6,12.6,12.6,12.5,12.5,12.5,12.5,12.5,12.4,12.4,12.4,12.4,12.3,12.3,12.3,12.3,12.2,12.2,12.2,12.1,12.1,12.1,12.1,12.0,12.0,12.0,11.9,11.9,11.9,11.9,11.8,11.8,11.8,11.7,11.7,11.7,11.6,11.6,11.6,11.6,11.5,11.5,11.5,11.4,11.4,11.4,11.3,11.3,11.3,11.2,11.2,11.1,11.1,11.1,11.0,11.0,11.0,10.9,10.9,10.9,10.8,10.8,10.8,10.7,10.7,10.6
11.0,11.1,11.1,11.2,11.2,11.2,11.3,11.3,11.3,11.4,11.4,11.5,11.5,11.5,11.6,11.6,11.6,11.7,11.7,11.7,11.8,11.8,11.9,11.9,11.9,12.0,12.0,12.0,12.1,12.1,12.1,12.1,12.2,12.2,12.2,12.3,12.3,12.3,12.4,12.4,12.4,12.5,12.5,12.5,12.5,12.6,12.6,12.6,12.7,12.7,12.7,12.7,12.8,12.8,12.8,12.8,12.9,12.9,12.9,12.9,13.0,13.0,13.0,13.0,13.1,13.1,13.1,13.1,13.2,13.2,13.2,13.2,13.2,13.3,13.3,13.3,13.3,13.3,13.4,13.4,13.4,13.4,13.4,13.5,13.5,13.5,13.5,13.5,13.5,13.5,13.6,13.6,13.6,13.6,13.6,13.6,13.6,13.7,13.7,13.7,13.7,13.7,13.7,13.7,13.7,13.7,13.8,13.8,13.8,13.8,13.8,13.8,13.8,13.8,13.8,13.8,13.8,13.8,13.8,13.8,13.8,13.8,13.8,13.8,13.8,13.9,13.9,13.9,13.9,13.9,13.9,13.8,13.8,13.8,13.8,13.8,13.8,13.8,13.8,13.8,13.8,13.8,13.8,13.8,13.8,13.8,13.8,13.8,13.8,13.8,13.7,13.7,13.7,13.7,13.7,13.7,13.7,13.7,13.7,13.6,13.6,13.6,13.6,13.6,13.6,13.6,13.5,13.5,13.5,13.5,13.5,13.5,13.5,13.4,13.4,13.4,13.4,13.4,13.3,13.3,13.3,13.3,13.3,13.2,13.2,13.2,13.2,13.2,13.1,13.1,13.1,13.1,13.0,13.0,13.0,13.0,12.9,12.9,12.9,12.9,12.8,12.8,12.8,12.8,12.7,12.7,12.7,12.7,12.6,12.6,12.6,12.5,12.5,12.5,12.5,12.4,12.4,12.4,12.3,12.3,12.3,12.2,12.2,12.2,12.1,12.1,12.1,12.1,12.0,12.0,12.0,11.9,11.9,11.9,11.8,11.8,11.7,11.7,11.7,11.6,11.6,11.6,11.5,11.5,11.5,11.4,11.4,11.3,11.3,11.3,11.2,11.2,11.2,11.1,11.1,11.0
11.4,11.5,11.5,11.6,11.6,11.6,11.7,11.7,11.8,11.8,11.8,11.9,11.9,11.9,12.0,12.0,12.1,12.1,12.1,12.2,12.2,12.2,12.3,12.3,12.3,12.4,12.4,12.5,12.5,12.5,12.6,12.6,12.6,12.7,12.7,12.7,12.8,12.8,12.8,12.8,12.9,12.9,12.9,13.0,13.0,13.0,13.1,13.1,13.1,13.1,13.2,13.2,13.2,13.3,13.3,13.3,13.3,13.4,13.4,13.4,13.4,13.5,13.5,13.5,13.5,13.6,13.6,13.6,13.6,13.7,13.7,13.7,13.7,13.7,13.8,13.8,13.8,13.8,13.8,13.9,13.9,13.9,13.9,13.9,14.0,14.0,14.0,14.0,14.0,14.0,14.1,14.1,14.1,14.1,14.1,14.1,14.1,14.2,14.2,14.2,14.2,14.2,14.2,14.2,14.2,14.2,14.3,14.3,14.3,14.3,14.3,14.3,14.3,14.3,14.3,14.3,14.3,14.3,14.3,14.3,14.3,14.3,14.3,14.4,14.4,14.4,14.4,14.4,14.4,14.4,14.4,14.4,14.4,14.3,14.3,14.3,14.3,14.3,14.3,14.3,14.3,14.3,14.3,14.3,14.3,14.3,14.3,14.3,14.3,14.3,14.2,14.2,14.2,14.2,14.2,14.2,14.2,14.2,14.2,14.1,14.1,14.1,14.1,14.1,14.1,14.1,14.0,14.0,14.0,14.0,14.0,14.0,13.9,13.9,13.9,13.9,13.9,13.8,13.8,13.8,13.8,13.8,13.7,13.7,13.7,13.7,13.7,13.6,13.6,13.6,13.6,13.5,13.5,13.5,13.5,13.4,13.4,13.4,13.4,13.3,13.3,13.3,13.3,13.2,13.2,13.2,13.1,13.1,13.1,13.1,13.0,13.0,13.0,12.9,12.9,12.9,12.8,12.8,12.8,12.8,12.7,12.7,12.7,12.6,12.6,12.6,12.5,12.5,12.5,12.4,12.4,12.3,12.3,12.3,12.2,12.2,12.2,12.1,12.1,12.1,12.0,12.0,11.9,11.9,11.9,11.8,11.8,11.8,11.7,11.7,11.6,11.6,11.6,11.5,11.5,11.4
11.8,11.9,11.9,12.0,12.0,12.0,12.1,12.1,12.2,12.2,12.2,12.3,12.3,12.4,12.4,12.4,12.5,12.5,12.6,12.6,12.6,12.7,12.7,12.7,12.8,12.8,12.9,12.9,12.9,13.0,13.0,13.0,13.1,13.1,13.1,13.2,13.2,13.2,13.3,13.3,13.3,13.4,13.4,13.4,13.5,13.5,13.5,13.5,13.6,13.6,13.6,13.7,13.7,13.7,13.7,13.8,13.8,13.8,13.9,13.9,13.9,13.9,14.0,14.0,14.0,14.0,14.1,14.1,14.1,14.1,14.2,14.2,14.2,14.2,14.2,14.3,14.3,14.3,14.3,14.3,14.4,14.4,14.4,14.4,14.4,14.5,14.5,14.5,14.5,14.5,14.5,14.6,14.6,14.6,14.6,14.6,14.6,14.7,14.7,14.7,14.7,14.7,14.7,14.7,14.7,14.7,14.8,14.8,14.8,14.8,14.8,14.8,14.8,14.8,14.8,14.8,14.8,14.8,14.8,14.8,14.8,14.8,14.8,14.9,14.9,14.9,14.9,14.9,14.9,14.9,14.9,14.9,14.9,14.8,14.8,14.8,14.8,14.8,14.8,14.8,14.8,14.8,14.8,14.8,14.8,14.8,14.8,14.8,14.8,14.8,14.7,14.7,14.7,14.7,14.7,14.7,14.7,14.7,14.7,14.6,14.6,14.6,14.6,14.6,14.6,14.5,14.5,14.5,14.5,14.5,14.5,14.4,14.4,14.4,14.4,14.4,14.3,14.3,14.3,14.3,14.3,14.2,14.2,14.2,14.2,14.2,14.1,14.1,14.1,14.1,14.0,14.0,14.0,14.0,13.9,13.9,13.9,13.9,13.8,13.8,13.8,13.7,13.7,13.7,13.7,13.6,13.6,13.6,13.5,13.5,13.5,13.5,13.4,13.4,13.4,13.3,13.3,13.3,13.2,13.2,13.2,13.1,13.1,13.1,13.0,13.0,13.0,12.9,12.9,12.9,12.8,12.8,12.7,12.7,12.7,12.6,12.6,12.6,12.5,12.5,12.4,12.4,12.4,12.3,12.3,12.2,12.2,12.2,12.1,12.1,12.0,12.0,12.0,11.9,11.9,11.8
12.2,12.3,12.3,12.4,12.4,12.4,12.5,12.5,12.6,12.6,12.7,12.7,12.7,12.8,12.8,12.9,12.9,12.9,13.0,13.0,13.1,13.1,13.1,13.2,13.2,13.2,13.3,13.3,13.4,13.4,13.4,13.5,13.5,13.5,13.6,13.6,13.6,13.7,13.7,13.7,13.8,13.8,13.8,13.9,13.9,13.9,14.0,14.0,14.0,14.1,14.1,14.1,14.2,14.2,14.2,14.2,14.3,14.3,14.3,14.4,14.4,14.4,14.4,14.5,14.5,14.5,14.5,14.6,14.6,14.6,14.6,14.7,14.7,14.7,14.7,14.7,14.8,14.8,14.8,14.8,14.9,14.9,14.9,14.9,14.9,15.0,15.0,15.0,15.0,15.0,15.0,15.1,15.1,15.1,15.1,15.1,15.1,15.1,15.2,15.2,15.2,15.2,15.2,15.2,15.2,15.2,15.3,15.3,15.3,15.3,15.3,15.3,15.3,15.3,15.3,15.3,15.3,15.3,15.3,15.3,15.3,15.3,15.4,15.4,15.4,15.4,15.4,15.4,15.4,15.4,15.4,15.4,15.4,15.4,15.3,15.3,15.3,15.3,15.3,15.3,15.3,15.3,15.3,15.3,15.3,15.3,15.3,15.3,15.3,15.3,15.2,15.2,15.2,15.2,15.2,15.2,15.2,15.2,15.1,15.1,15.1,15.1,15.1,15.1,15.1,15.0,15.0,15.0,15.0,15.0,15.0,14.9,14.9,14.9,14.9,14.9,14.8,14.8,14.8,14.8,14.7,14.7,14.7,14.7,14.7,14.6,14.6,14.6,14.6,14.5,14.5,14.5,14.5,14.4,14.4,14.4,14.4,14.3,14.3,14.3,14.2,14.2,14.2,14.2,14.1,14.1,14.1,14.0,14.0,14.0,13.9,13.9,13.9,13.8,13.8,13.8,13.7,13.7,13.7,13.6,13.6,13.6,13.5,13.5,13.5,13.4,13.4,13.4,13.3,13.3,13.2,13.2,13.2,13.1,13.1,13.1,13.0,13.0,12.9,12.9,12.9,12.8,12.8,12.7,12.7,12.7,12.6,12.6,12.5,12.5,12.4,12.4,12.4,12.3,12.3,12.2
12.6,12.7,12.7,12.8,12.8,12.8,12.9,12.9,13.0,13.0,13.1,13.1,13.2,13.2,13.2,13.3,13.3,13.4,13.4,13.4,13.5,13.5,13.6,13.6,13.6,13.7,13.7,13.8,13.8,13.8,13.9,13.9,13.9,14.0,14.0,14.1,14.1,14.1,14.2,14.2,14.2,14.3,14.3,14.3,14.4,14.4,14.4,14.5,14.5,14.5,14.6,14.6,14.6,14.6,14.7,14.7,14.7,14.8,14.8,14.8,14.8,14.9,14.9,14.9,15.0,15.0,15.0,15.0,15.1,15.1,15.1,15.1,15.2,15.2,15.2,15.2,15.3,15.3,15.3,15.3,15.3,15.4,15.4,15.4,15.4,15.4,15.5,15.5,15.5,15.5,15.5,15.5,15.6,15.6,15.6,15.6,15.6,15.6,15.7,15.7,15.7,15.7,15.7,15.7,15.7,15.7,15.7,15.8,15.8,15.8,15.8,15.8,15.8,15.8,15.8,15.8,15.8,15.8,15.8,15.8,15.8,15.8,15.9,15.9,15.9,15.9,15.9,15.9,15.9,15.9,15.9,15.9,15.9,15.9,15.8,15.8,15.8,15.8,15.8,15.8,15.8,15.8,15.8,15.8,15.8,15.8,15.8,15.8,15.8,15.7,15.7,15.7,15.7,15.7,15.7,15.7,15.7,15.7,15.6,15.6,15.6,15.6,15.6,15.6,15.5,15.5,15.5,15.5,15.5,15.5,15.4,15.4,15.4,15.4,15.4,15.3,15.3,15.3,15.3,15.3,15.2,15.2,15.2,15.2,15.1,15.1,15.1,15.1,15.0,15.0,15.0,15.0,14.9,14.9,14.9,14.8,14.8,14.8,14.8,14.7,14.7,14.7,14.6,14.6,14.6,14.6,14.5,14.5,14.5,14.4,14.4,14.4,14.3,14.3,14.3,14.2,14.2,14.2,14.1,14.1,14.1,14.0,14.0,13.9,13.9,13.9,13.8,13.8,13.8,13.7,13.7,13.6,13.6,13.6,13.5,13.5,13.4,13.4,13.4,13.3,13.3,13.2,13.2,13.2,13.1,13.1,13.0,13.0,12.9,12.9,12.8,12.8,12.8,12.7,12.7,12.6
13.0,13.1,13.1,13.2,13.2,13.3,13.3,13.3,13.4,13.4,13.5,13.5,13.6,13.6,13.7,13.7,13.7,13.8,13.8,13.9,13.9,13.9,14.0,14.0,14.1,14.1,14.1,14.2,14.2,14.3,14.3,14.3,14.4,14.4,14.5,14.5,14.5,14.6,14.6,14.6,14.7,14.7,14.7,14.8,14.8,14.8,14.9,14.9,14.9,15.0,15.0,15.0,15.1,15.1,15.1,15.2,15.2,15.2,15.3,15.3,15.3,15.3,15.4,15.4,15.4,15.5,15.5,15.5,15.5,15.6,15.6,15.6,15.6,15.7,15.7,15.7,15.7,15.8,15.8,15.8,15.8,15.8,15.9,15.9,15.9,15.9,15.9,16.0,16.0,16.0,16.0,16.0,16.1,16.1,16.1,16.1,16.1,16.1,16.1,16.2,16.2,16.2,16.2,16.2,16.2,16.2,16.2,16.3,16.3,16.3,16.3,16.3,16.3,16.3,16.3,16.3,16.3,16.3,16.3,16.3,16.3,16.4,16.4,16.4,16.4,16.4,16.4,16.4,16.4,16.4,16.4,16.4,16.4,16.4,16.4,16.3,16.3,16.3,16.3,16.3,16.3,16.3,16.3,16.3,16.3,16.3,16.3,16.3,16.3,16.2,16.2,16.2,16.2,16.2,16.2,16.2,16.2,16.1,16.1,16.1,16.1,16.1,16.1,16.1,16.0,16.0,16.0,16.0,16.0,15.9,15.9,15.9,15.9,15.9,15.8,15.8,15.8,15.8,15.8,15.7,15.7,15.7,15.7,15.6,15.6,15.6,15.6,15.5,15.5,15.5,15.5,15.4,15.4,15.4,15.3,15.3,15.3,15.3,15.2,15.2,15.2,15.1,15.1,15.1,15.0,15.0,15.0,14.9,14.9,14.9,14.8,14.8,14.8,14.7,14.7,14.7,14.6,14.6,14.6,14.5,14.5,14.5,14.4,14.4,14.3,14.3,14.3,14.2,14.2,14.1,14.1,14.1,14.0,14.0,13.9,13.9,13.9,13.8,13.8,13.7,13.7,13.7,13.6,13.6,13.5,13.5,13.4,13.4,13.3,13.3,13.3,13.2,13.2,13.1,13.1,13.0
13.4,13.5,13.5,13.6,13.6,13.7,13.7,13.7,13.8,13.8,13.9,13.9,14.0,14.0,14.1,14.1,14.2,14.2,14.2,14.3,14.3,14.4,14.4,14.5,14.5,14.5,14.6,14.6,14.7,14.7,14.7,14.8,14.8,14.9,14.9,14.9,15.0,15.0,15.0,15.1,15.1,15.2,15.2,15.2,15.3,15.3,15.3,15.4,15.4,15.4,15.5,15.5,15.5,15.6,15.6,15.6,15.7,15.7,15.7,15.8,15.8,15.8,15.8,15.9,15.9,15.9,16.0,16.0,16.0,16.0,16.1,16.1,16.1,16.1,16.2,16.2,16.2,16.2,16.3,16.3,16.3,16.3,16.4,16.4,16.4,16.4,16.4,16.5,16.5,16.5,16.5,16.5,16.5,16.6,16.6,16.6,16.6,16.6,16.6,16.7,16.7,16.7,16.7,16.7,16.7,16.7,16.7,16.8,16.8,16.8,16.8,16.8,16.8,16.8,16.8,16.8,16.8,16.8,16.8,16.8,16.8,16.9,16.9,16.9,16.9,16.9,16.9,16.9,16.9,16.9,16.9,16.9,16.9,16.9,16.9,16.8,16.8,16.8,16.8,16.8,16.8,16.8,16.8,16.8,16.8,16.8,16.8,16.8,16.8,16.7,16.7,16.7,16.7,16.7,16.7,16.7,16.7,16.6,16.6,16.6,16.6,16.6,16.6,16.5,16.5,16.5,16.5,16.5,16.5,16.4,16.4,16.4,16.4,16.4,16.3,16.3,16.3,16.3,16.2,16.2,16.2,16.2,16.1,16.1,16.1,16.1,16.0,16.0,16.0,16.0,15.9,15.9,15.9,15.8,15.8,15.8,15.8,15.7,15.7,15.7,15.6,15.6,15.6,15.5,15.5,15.5,15.4,15.4,15.4,15.3,15.3,15.3,15.2,15.2,15.2,15.1,15.1,15.0,15.0,15.0,14.9,14.9,14.9,14.8,14.8,14.7,14.7,14.7,14.6,14.6,14.5,14.5,14.5,14.4,14.4,14.3,14.3,14.2,14.2,14.2,14.1,14.1,14.0,14.0,13.9,13.9,13.8,13.8,13.7,13.7,13.7,13.6,13.6,13.5,13.5,13.4
13.8,13.9,13.9,14.0,14.0,14.1,14.1,14.2,14.2,14.2,14.3,14.3,14.4,14.4,14.5,14.5,14.6,14.6,14.7,14.7,14.8,14.8,14.8,14.9,14.9,15.0,15.0,15.1,15.1,15.1,15.2,15.2,15.3,15.3,15.3,15.4,15.4,15.5,15.5,15.5,15.6,15.6,15.6,15.7,15.7,15.8,15.8,15.8,15.9,15.9,15.9,16.0,16.0,16.0,16.1,16.1,16.1,16.2,16.2,16.2,16.3,16.3,16.3,16.3,16.4,16.4,16.4,16.5,16.5,16.5,16.5,16.6,16.6,16.6,16.6,16.7,16.7,16.7,16.7,16.8,16.8,16.8,16.8,16.9,16.9,16.9,16.9,16.9,17.0,17.0,17.0,17.0,17.0,17.1,17.1,17.1,17.1,17.1,17.1,17.2,17.2,17.2,17.2,17.2,17.2,17.2,17.2,17.3,17.3,17.3,17.3,17.3,17.3,17.3,17.3,17.3,17.3,17.3,17.3,17.3,17.3,17.4,17.4,17.4,17.4,17.4,17.4,17.4,17.4,17.4,17.4,17.4,17.4,17.4,17.4,17.3,17.3,17.3,17.3,17.3,17.3,17.3,17.3,17.3,17.3,17.3,17.3,17.3,17.3,17.2,17.2,17.2,17.2,17.2,17.2,17.2,17.2,17.1,17.1,17.1,17.1,17.1,17.1,17.0,17.0,17.0,17.0,17.0,16.9,16.9,16.9,16.9,16.9,16.8,16.8,16.8,16.8,16.7,16.7,16.7,16.7,16.6,16.6,16.6,16.6,16.5,16.5,16.5,16.5,16.4,16.4,16.4,16.3,16.3,16.3,16.3,16.2,16.2,16.2,16.1,16.1,16.1,16.0,16.0,16.0,15.9,15.9,15.9,15.8,15.8,15.8,15.7,15.7,15.6,15.6,15.6,15.5,15.5,15.5,15.4,15.4,15.3,15.3,15.3,15.2,15.2,15.1,15.1,15.1,15.0,15.0,14.9,14.9,14.8,14.8,14.8,14.7,14.7,14.6,14.6,14.5,14.5,14.4,14.4,14.3,14.3,14.2,14.2,14.2,14.1,14.1,14.0,14.0,13.9,13.9,13.8
14.2,14.3,14.3,14.4,14.4,14.5,14.5,14.6,14.6,14.7,14.7,14.8,14.8,14.8,14.9,14.9,15.0,15.0,15.1,15.1,15.2,15.2,15.3,15.3,15.4,15.4,15.4,15.5,15.5,15.6,15.6,15.7,15.7,15.7,15.8,15.8,15.9,15.9,15.9,16.0,16.0,16.1,16.1,16.1,16.2,16.2,16.2,16.3,16.3,16.4,16.4,16.4,16.5,16.5,16.5,16.6,16.6,16.6,16.7,16.7,16.7,16.8,16.8,16.8,16.8,16.9,16.9,16.9,17.0,17.0,17.0,17.0,17.1,17.1,17.1,17.2,17.2,17.2,17.2,17.3,17.3,17.3,17.3,17.3,17.4,17.4,17.4,17.4,17.5,17.5,17.5,17.5,17.5,17.5,17.6,17.6,17.6,17.6,17.6,17.6,17.7,17.7,17.7,17.7,17.7,17.7,17.7,17.8,17.8,17.8,17.8,17.8,17.8,17.8,17.8,17.8,17.8,17.8,17.8,17.8,17.8,17.9,17.9,17.9,17.9,17.9,17.9,17.9,17.9,17.9,17.9,17.9,17.9,17.9,17.9,17.8,17.8,17.8,17.8,17.8,17.8,17.8,17.8,17.8,17.8,17.8,17.8,17.8,17.8,17.7,17.7,17.7,17.7,17.7,17.7,17.7,17.6,17.6,17.6,17.6,17.6,17.6,17.5,17.5,17.5,17.5,17.5,17.5,17.4,17.4,17.4,17.4,17.3,17.3,17.3,17.3,17.3,17.2,17.2,17.2,17.2,17.1,17.1,17.1,17.0,17.0,17.0,17.0,16.9,16.9,16.9,16.8,16.8,16.8,16.8,16.7,16.7,16.7,16.6,16.6,16.6,16.5,16.5,16.5,16.4,16.4,16.4,16.3,16.3,16.2,16.2,16.2,16.1,16.1,16.1,16.0,16.0,15.9,15.9,15.9,15.8,15.8,15.7,15.7,15.7,15.6,15.6,15.5,15.5,15.4,15.4,15.4,15.3,15.3,15.2,15.2,15.1,15.1,15.0,15.0,14.9,14.9,14.8,14.8,14.8,14.7,14.7,14.6,14.6,14.5,14.5,14.4,14.4,14.3,14.3,14.2
14.6,14.6,14.7,14.8,14.8,14.9,14.9,15.0,15.0,15.1,15.1,15.2,15.2,15.3,15.3,15.4,15.4,15.5,15.5,15.6,15.6,15.6,15.7,15.7,15.8,15.8,15.9,15.9,16.0,16.0,16.0,16.1,16.1,16.2,16.2,16.3,16.3,16.3,16.4,16.4,16.5,16.5,16.5,16.6,16.6,16.7,16.7,16.7,16.8,16.8,16.8,16.9,16.9,17.0,17.0,17.0,17.1,17.1,17.1,17.2,17.2,17.2,17.3,17.3,17.3,17.3,17.4,17.4,17.4,17.5,17.5,17.5,17.6,17.6,17.6,17.6,17.7,17.7,17.7,17.7,17.8,17.8,17.8,17.8,17.9,17.9,17.9,17.9,17.9,18.0,18.0,18.0,18.0,18.0,18.1,18.1,18.1,18.1,18.1,18.1,18.2,18.2,18.2,18.2,18.2,18.2,18.2,18.2,18.3,18.3,18.3,18.3,18.3,18.3,18.3,18.3,18.3,18.3,18.3,18.3,18.3,18.4,18.4,18.4,18.4,18.4,18.4,18.4,18.4,18.4,18.4,18.4,18.4,18.4,18.4,18.3,18.3,18.3,18.3,18.3,18.3,18.3,18.3,18.3,18.3,18.3,18.3,18.3,18.2,18.2,18.2,18.2,18.2,18.2,18.2,18.2,18.1,18.1,18.1,18.1,18.1,18.1,18.0,18.0,18.0,18.0,18.0,17.9,17.9,17.9,17.9,17.9,17.8,17.8,17.8,17.8,17.7,17.7,17.7,17.7,17.6,17.6,17.6,17.6,17.5,17.5,17.5,17.4,17.4,17.4,17.3,17.3,17.3,17.3,17.2,17.2,17.2,17.1,17.1,17.1,17.0,17.0,17.0,16.9,16.9,16.8,16.8,16.8,16.7,16.7,16.7,16.6,16.6,16.5,16.5,16.5,16.4,16.4,16.3,16.3,16.3,16.2,16.2,16.1,16.1,16.0,16.0,16.0,15.9,15.9,15.8,15.8,15.7,15.7,15.6,15.6,15.6,15.5,15.5,15.4,15.4,15.3,15.3,15.2,15.2,15.1,15.1,15.0,15.0,14.9,14.9,14.8,14.8,14.7,14.6,14.6
15.0,15.0,15.1,15.2,15.2,15.3,15.3,15.4,15.4,15.5,15.5,15.6,15.6,15.7,15.7,15.8,15.8,15.9,15.9,16.0,16.0,16.1,16.1,16.2,16.2,16.3,16.3,16.3,16.4,16.4,16.5,16.5,16.6,16.6,16.7,16.7,16.7,16.8,16.8,16.9,16.9,17.0,17.0,17.0,17.1,17.1,17.2,17.2,17.2,17.3,17.3,17.3,17.4,17.4,17.5,17.5,17.5,17.6,17.6,17.6,17.7,17.7,17.7,17.8,17.8,17.8,17.9,17.9,17.9,17.9,18.0,18.0,18.0,18.1,18.1,18.1,18.1,18.2,18.2,18.2,18.2,18.3,18.3,18.3,18.3,18.4,18.4,18.4,18.4,18.5,18.5,18.5,18.5,18.5,18.6,18.6,18.6,18.6,18.6,18.6,18.7,18.7,18.7,18.7,18.7,18.7,18.7,18.7,18.8,18.8,18.8,18.8,18.8,18.8,18.8,18.8,18.8,18.8,18.8,18.8,18.8,18.9,18.9,18.9,18.9,18.9,18.9,18.9,18.9,18.9,18.9,18.9,18.9,18.9,18.9,18.8,18.8,18.8,18.8,18.8,18.8,18.8,18.8,18.8,18.8,18.8,18.8,18.8,18.7,18.7,18.7,18.7,18.7,18.7,18.7,18.7,18.6,18.6,18.6,18.6,18.6,18.6,18.5,18.5,18.5,18.5,18.5,18.4,18.4,18.4,18.4,18.3,18.3,18.3,18.3,18.2,18.2,18.2,18.2,18.1,18.1,18.1,18.1,18.0,18.0,18.0,17.9,17.9,17.9,17.9,17.8,17.8,17.8,17.7,17.7,17.7,17.6,17.6,17.6,17.5,17.5,17.5,17.4,17.4,17.3,17.3,17.3,17.2,17.2,17.2,17.1,17.1,17.0,17.0,17.0,16.9,16.9,16.8,16.8,16.7,16.7,16.7,16.6,16.6,16.5,16.5,16.4,16.4,16.3,16.3,16.3,16.2,16.2,16.1,16.1,16.0,16.0,15.9,15.9,15.8,15.8,15.7,15.7,15.6,15.6,15.5,15.5,15.4,15.4,15.3,15.3,15.2,15.2,15.1,15.0,15.0
15.4,15.4,15.5,15.5,15.6,15.7,15.7,15.8,15.8,15.9,15.9,16.0,16.0,16.1,16.1,16.2,16.2,16.3,16.3,16.4,16.4,16.5,16.5,16.6,16.6,16.7,16.7,16.8,16.8,16.9,16.9,17.0,17.0,17.1,17.1,17.1,17.2,17.2,17.3,17.3,17.4,17.4,17.4,17.5,17.5,17.6,17.6,17.6,17.7,17.7,17.8,17.8,17.8,17.9,17.9,17.9,18.0,18.0,18.1,18.1,18.1,18.2,18.2,18.2,18.3,18.3,18.3,18.4,18.4,18.4,18.4,18.5,18.5,18.5,18.6,18.6,18.6,18.7,18.7,18.7,18.7,18.8,18.8,18.8,18.8,18.9,18.9,18.9,18.9,18.9,19.0,19.0,19.0,19.0,19.0,19.1,19.1,19.1,19.1,19.1,19.1,19.2,19.2,19.2,19.2,19.2,19.2,19.2,19.3,19.3,19.3,19.3,19.3,19.3,19.3,19.3,19.3,19.3,19.3,19.3,19.3,19.4,19.4,19.4,19.4,19.4,19.4,19.4,19.4,19.4,19.4,19.4,19.4,19.4,19.4,19.3,19.3,19.3,19.3,19.3,19.3,19.3,19.3,19.3,19.3,19.3,19.3,19.3,19.2,19.2,19.2,19.2,19.2,19.2,19.2,19.1,19.1,19.1,19.1,19.1,19.1,19.0,19.0,19.0,19.0,19.0,18.9,18.9,18.9,18.9,18.9,18.8,18.8,18.8,18.8,18.7,18.7,18.7,18.7,18.6,18.6,18.6,18.5,18.5,18.5,18.4,18.4,18.4,18.4,18.3,18.3,18.3,18.2,18.2,18.2,18.1,18.1,18.1,18.0,18.0,17.9,17.9,17.9,17.8,17.8,17.8,17.7,17.7,17.6,17.6,17.6,17.5,17.5,17.4,17.4,17.4,17.3,17.3,17.2,17.2,17.1,17.1,17.1,17.0,17.0,16.9,16.9,16.8,16.8,16.7,16.7,16.6,16.6,16.5,16.5,16.4,16.4,16.3,16.3,16.2,16.2,16.1,16.1,16.0,16.0,15.9,15.9,15.8,15.8,15.7,15.7,15.6,15.5,15.5,15.4,15.4
