3.195392771959929,3.195852515435712,3.1963078570055448,3.1967587909106276,3.197205311443563,3.197647412948558,3.1980850898216153,3.1985183365107295,3.198947147516078,3.1993715173902135,3.1997914407382493,3.2002069122180496,3.2006179265404144,3.201024478469264,3.20142656282182,3.2018241744687876,3.202217308334533,3.202605959397262,3.2029901226891955,3.2033697932967446,3.2037449663606794,3.2041156370763013,3.204481800693615,3.2048434525174887,3.2052005879078247,3.2055532022797215,3.2059012911036344,3.2062448499055356,3.206583874267073,3.2069183598257243,3.2072483022749543,3.207573697364366,3.2078945408998494,3.208210828743733,3.2085225568149296,3.2088297210890793,3.209132317598697,3.2094303424333077,3.209723791739593,3.21001266172152,3.210296948640483,3.2105766488154357,3.21085175862302,3.211122274497697,3.2113881929318766,3.2116495104760387,3.211906223738861,3.212158329387338,3.2124058241469005,3.212648704801534,3.2128869681938945,3.213120611225419,3.2133496308564427,3.213574024106301,3.213793788053443,3.2140089198355324,3.214219416649553,3.2144252757519105,3.214626494458526,3.2148230701449423,3.2150150002464075,3.215202282257978,3.2153849137346016,3.2155628922912105,3.2157362156028024,3.2159048814045317,3.2160688874917858,3.216228231720267,3.21638291200607,3.216532926325757,3.216678272716434,3.2168189492758152,3.2169549541623,3.2170862855950357,3.2172129418539805,3.2173349212799707,3.2174522222747766,3.2175648433011634,3.217672782882946,3.2177760396050434,3.217874612113528,3.2179684991156776,3.218057699380021,3.2181422117363834,3.218222035075928,3.2182971683511994,3.2183676105761556,3.2184333608262112,3.2184944182382664,3.21855078201074,3.2186024514035987,3.2186494257383833,3.2186917043982333,3.218729286827911,3.218762172533821,3.218790361084028,3.2188138521082705,3.2188326452979794,3.2188467404062835,3.2188561372480238,3.2188608356997555,3.2188608356997555,3.2188561372480238,3.2188467404062835,3.2188326452979794,3.2188138521082705,3.218790361084028,3.218762172533821,3.218729286827911,3.2186917043982333,3.2186494257383833,3.2186024514035987,3.21855078201074,3.2184944182382664,3.2184333608262112,3.2183676105761556,3.2182971683511994,3.218222035075928,3.2181422117363834,3.218057699380021,3.2179684991156776,3.217874612113528,3.2177760396050434,3.217672782882946,3.2175648433011634,3.2174522222747766,3.2173349212799707,3.2172129418539805,3.2170862855950357,3.2169549541623,3.2168189492758152,3.216678272716434,3.216532926325757,3.21638291200607,3.216228231720267,3.2160688874917858,3.2159048814045317,3.2157362156028024,3.2155628922912105,3.2153849137346016,3.215202282257978,3.2150150002464075,3.2148230701449423,3.214626494458526,3.2144252757519105,3.214219416649553,3.2140089198355324,3.213793788053443,3.213574024106301,3.2133496308564427,3.213120611225419,3.2128869681938945,3.212648704801534,3.2124058241469005,3.212158329387338,3.211906223738861,3.2116495104760387
3.2639638804724425,3.264433447468831,3.2648985184840327,3.265359087636714,3.265815149098039,3.266266697091874,3.2667137258949817,3.2671562298372274,3.2675942033017673,3.268027640725248,3.2684565365979976,3.268880885464216,3.269300681922166,3.2697159206243622,3.270126596277755,3.270532703643916,3.27093423753922,3.2713311928350297,3.271723564457871,3.2721113473896106,3.2724945366676357,3.272873127385025,3.2732471146907205,3.2736164937897,3.273981259943145,3.274341408468607,3.2746969347401746,3.275047834188632,3.2753941023016266,3.275735734623823,3.2760727267570635,3.276405074360524,3.2767327731508646,3.2770558189023866,3.2773742074471777,3.2776879346752614,3.2779969965347453,3.278301389031962,3.278601108231614,3.2788961502569114,3.2791865112897125,3.279472187570658,3.2797531753993057,3.280029471134265,3.280301071193322,3.2805679720535754,3.2808301702515537,3.281087662383345,3.2813404451047186,3.281588515131243,3.281831869238406,3.2820705042617275,3.2823044170968765,3.28253360469978,3.282758064086736,3.282977792334516,3.283192786580475,3.283403044022652,3.283608561919871,3.2838093375918413,3.284005368419254,3.284196651843875,3.2843831853686387,3.284564966557739,3.2847419930367177,3.284914262492545,3.285081772673711,3.285244521390304,3.285402506514086,3.2855557259785773,3.2857041777791256,3.285847859972981,3.2859867706793646,3.2861209080795404,3.286250270416879,3.2863748559969195,3.2864946631874354,3.2866096904184907,3.286719936182498,3.2868253990342735,3.2869260775910893,3.287021970532723,3.287113076601507,3.2871993946023754,3.2872809234029026,3.287357661933351,3.287429609186705,3.2874967642187105,3.2875591261479062,3.287616694155661,3.2876694674861984,3.287717445446627,3.287760627406965,3.2877990128001637,3.2878326011221266,3.2878613919317314,3.2878853848508403,3.287904579564319,3.287918975820047,3.2879285734289234,3.28793337226488,3.28793337226488,3.2879285734289234,3.287918975820047,3.287904579564319,3.2878853848508403,3.2878613919317314,3.2878326011221266,3.2877990128001637,3.287760627406965,3.287717445446627,3.2876694674861984,3.287616694155661,3.2875591261479062,3.2874967642187105,3.287429609186705,3.287357661933351,3.2872809234029026,3.2871993946023754,3.287113076601507,3.287021970532723,3.2869260775910893,3.2868253990342735,3.286719936182498,3.2866096904184907,3.2864946631874354,3.2863748559969195,3.286250270416879,3.2861209080795404,3.2859867706793646,3.285847859972981,3.2857041777791256,3.2855557259785773,3.285402506514086,3.285244521390304,3.285081772673711,3.284914262492545,3.2847419930367177,3.284564966557739,3.2843831853686387,3.284196651843875,3.284005368419254,3.2838093375918413,3.283608561919871,3.283403044022652,3.283192786580475,3.282977792334516,3.282758064086736,3.28253360469978,3.2823044170968765,3.2820705042617275,3.281831869238406,3.281588515131243,3.2813404451047186,3.281087662383345,3.2808301702515537,3.2805679720535754
3.3325256301221455,3.3330050166080993,3.33347981307509,3.3339500135193325,3.3344156119906345,3.3348766025926007,3.3353329794828412,3.335784736873167,3.336231869029794,3.3366743702735437,3.3371122349800344,3.3375454575798797,3.337974032558884,3.33839795445823,3.3388172178746727,3.3392318174607247,3.3396417479248455,3.3400470040316237,3.3404475806019622,3.34084347251326,3.3412346746995882,3.3416211821518713,3.342002989918062,3.342380093103313,3.3427524868701544,3.343120166438657,3.3434831270866066,3.343841364149669,3.3441948730215523,3.344543649154172,3.344887688057812,3.3452269853012826,3.3455615365120766,3.3458913373765253,3.346216383639953,3.346536671106827,3.3468521956409036,3.3471629531653804,3.3474689396630386,3.3477701511763858,3.3480665838077983,3.3483582337196593,3.3486450971344963,3.3489271703351164,3.3492044496647386,3.349476931527123,3.3497446123867047,3.350007488768713,3.350265557259304,3.350518814505676,3.3507672572161944,3.351010882160508,3.351249686169665,3.351483666136228,3.3517128190143857,3.35193714182006,3.3521566316310176,3.352371285586973,3.3525811008896906,3.352786074803087,3.3529862046533307,3.3531814878289374,3.3533719217808637,3.353557504022601,3.3537382321302642,3.353914103742679,3.3540851165614676,3.354251268351136,3.3544125569391468,3.3545689802160044,3.35472053613533,3.3548672227139344,3.3550090380318918,3.355145980232608,3.355278047522888,3.3554052381730033,3.3555275505167503,3.355644982951517,3.3557575339383328,3.3558652020019353,3.355967985730813,3.3560658837772652,3.356158894857446,3.356247017751413,3.3563302513031705,3.356408594420714,3.356482046076068,3.3565506053053213,3.35661427120867,3.3566730429504394,3.3567269197591227,3.3567759009274076,3.356819985812198,3.3568591738346423,3.3568934644801525,3.3569228572984224,3.3569473519034463,3.3569669479735285,3.3569816452513006,3.356991443543728,3.356996342722115,3.356996342722115,3.356991443543728,3.3569816452513006,3.3569669479735285,3.3569473519034463,3.3569228572984224,3.3568934644801525,3.3568591738346423,3.356819985812198,3.3567759009274076,3.3567269197591227,3.3566730429504394,3.35661427120867,3.3565506053053213,3.356482046076068,3.356408594420714,3.3563302513031705,3.356247017751413,3.356158894857446,3.3560658837772652,3.355967985730813,3.3558652020019353,3.3557575339383328,3.355644982951517,3.3555275505167503,3.3554052381730033,3.355278047522888,3.355145980232608,3.3550090380318918,3.3548672227139344,3.35472053613533,3.3545689802160044,3.3544125569391468,3.354251268351136,3.3540851165614676,3.353914103742679,3.3537382321302642,3.353557504022601,3.3533719217808637,3.3531814878289374,3.3529862046533307,3.352786074803087,3.3525811008896906,3.352371285586973,3.3521566316310176,3.35193714182006,3.3517128190143857,3.351483666136228,3.351249686169665,3.351010882160508,3.3507672572161944,3.350518814505676,3.350265557259304,3.350007488768713,3.3497446123867047,3.349476931527123
3.401077826515891,3.4015670283774,3.4020515462203993,3.4025313739187384,3.4030065054009517,3.403476934650469,3.403942655705825,3.4044036626608625,3.404859949664939,3.405311510923128,3.40575834069642,3.4062004333019225,3.4066377831130557,3.407070384559752,3.407498232128645,3.407921320363267,3.4083396438642337,3.408753197289437,3.409161975354232,3.4095659728316186,3.4099651845524264,3.410359605405497,3.4107492303378635,3.4111340543549256,3.4115140725206268,3.4118892799576295,3.412259671847484,3.4126252434308,3.412985990007417,3.4133419069365654,3.413692989637032,3.414039233587328,3.414380634325838,3.41471718745099,3.415048888621404,3.415375733556047,3.415697718034389,3.416014837896548,3.416327089043441,3.416634467436932,3.41693696909997,3.4172345901167356,3.4175273266327806,3.4178151748551633,3.4180981310525858,3.4183761915555264,3.4186493527563724,3.4189176111095483,3.4191809631316423,3.419439405401534,3.419692934560512,3.4199415473123995,3.4201852404236726,3.4204240107235715,3.4206578551042197,3.420886770520734,3.4211107539913344,3.421329802597451,3.421543913483829,3.421753083858633,3.4219573109935477,3.4221565922238755,3.422350924948631,3.422540306630639,3.4227247347966245,3.4229042070373006,3.423078721007457,3.4232482744260477,3.423412865076268,3.4235724908056357,3.4237271495260777,3.4238768392139924,3.424021557910335,3.4241613037206786,3.424296074815293,3.4244258694292014,3.4245506858622514,3.424670522479174,3.4247853777096426,3.424895250048334,3.425000138054976,3.4251000403544065,3.4251949556366204,3.425284882656818,3.425369820235449,3.4254497672582587,3.425524722676325,3.425594685506097,3.425659654829435,3.425719629793639,3.425774609611481,3.4258245935612357,3.4258695809867055,3.4259095712972427,3.4259445639677746,3.42597455853882,3.4259995546165074,3.4260195518725864,3.426034550044446,3.4260445489351157,3.42604954841328,3.42604954841328,3.4260445489351157,3.426034550044446,3.4260195518725864,3.4259995546165074,3.42597455853882,3.4259445639677746,3.4259095712972427,3.4258695809867055,3.4258245935612357,3.425774609611481,3.425719629793639,3.425659654829435,3.425594685506097,3.425524722676325,3.4254497672582587,3.425369820235449,3.425284882656818,3.4251949556366204,3.4251000403544065,3.425000138054976,3.424895250048334,3.4247853777096426,3.424670522479174,3.4245506858622514,3.4244258694292014,3.424296074815293,3.4241613037206786,3.424021557910335,3.4238768392139924,3.4237271495260777,3.4235724908056357,3.423412865076268,3.4232482744260477,3.423078721007457,3.4229042070373006,3.4227247347966245,3.422540306630639,3.422350924948631,3.4221565922238755,3.4219573109935477,3.421753083858633,3.421543913483829,3.421329802597451,3.4211107539913344,3.420886770520734,3.4206578551042197,3.4204240107235715,3.4201852404236726,3.4199415473123995,3.419692934560512,3.419439405401534,3.4191809631316423,3.4189176111095483,3.4186493527563724,3.4183761915555264
3.4696202754241043,3.4701192884643035,3.4706135235254476,3.4711029743591078,3.47158763477263,3.472067498629355,3.4725425598488266,3.473012812407003,3.4734782503364645,3.4739388677266207,3.4743946587239147,3.4748456175320275,3.4752917384120785,3.4757330156828252,3.4761694437208606,3.476601016960812,3.47702772989553,3.477449577076286,3.4778665531129582,3.4782786526742266,3.4786858704877517,3.4790882013403652,3.479485640078252,3.4798781816071287,3.4802658208924258,3.4806485529594635,3.481026372893627,3.4813992758405394,3.481767257006236,3.482130311657327,3.4824884351211733,3.482841622786045,3.48318987010129,3.4835331725774887,3.4838715257866215,3.484204925362219,3.4845333669995204,3.4848568464556275,3.4851753595496526,3.4854889021628694,3.48579747023886,3.4861010597836586,3.4863996668658954,3.486693287616935,3.4869819182310153,3.487265554965387,3.487544194140441,3.487817832139845,3.4880864654106745,3.488350090463534,3.488608703872688,3.4888623022761824,3.489110882375962,3.4893544409379937,3.489592974792382,3.48982648083348,3.490054956020004,3.4902783973751426,3.490496801986664,3.4907101670070193,3.490918489653449,3.491121767208079,3.491319997018023,3.491513176495474,3.4917013031178024,3.491884374427644,3.4920623880329904,3.4922353416072744,3.4924032328894556,3.492566059684102,3.4927238198614705,3.492876511357579,3.4930241321742885,3.493166680379373,3.4933041541065863,3.493436551555734,3.4935638709927375,3.4936861107496955,3.493803269224948,3.4939153448831304,3.4940223362552327,3.494124241938652,3.4942210605972415,3.494312790961362,3.494399431827927,3.494480982060446,3.494557440589067,3.494628806410613,3.494695078588623,3.494756256253381,3.4948123386019523,3.4948633248982075,3.4949092144728566,3.4949500067234656,3.494985701114484,3.4950162971772625,3.495041794510069,3.4950621927781054,3.495077491713517,3.4950876911154056,3.4950927908498346,3.4950927908498346,3.4950876911154056,3.495077491713517,3.4950621927781054,3.495041794510069,3.4950162971772625,3.494985701114484,3.4949500067234656,3.4949092144728566,3.4948633248982075,3.4948123386019523,3.494756256253381,3.494695078588623,3.494628806410613,3.494557440589067,3.494480982060446,3.494399431827927,3.494312790961362,3.4942210605972415,3.494124241938652,3.4940223362552327,3.4939153448831304,3.493803269224948,3.4936861107496955,3.4935638709927375,3.493436551555734,3.4933041541065863,3.493166680379373,3.4930241321742885,3.492876511357579,3.4927238198614705,3.492566059684102,3.4924032328894556,3.4922353416072744,3.4920623880329904,3.491884374427644,3.4917013031178024,3.491513176495474,3.491319997018023,3.491121767208079,3.490918489653449,3.4907101670070193,3.490496801986664,3.4902783973751426,3.490054956020004,3.48982648083348,3.489592974792382,3.4893544409379937,3.489110882375962,3.4888623022761824,3.488608703872688,3.488350090463534,3.4880864654106745,3.487817832139845,3.487544194140441,3.487265554965387
3.538152782784039,3.5386616027233297,3.539165550762791,3.539664620531801,3.5401588057166093,3.540648100060552,3.541132497364269,3.541611991485917,3.5420865763413865,3.542556245904504,3.543020994207251,3.5434808153399633,3.543935703451539,3.5443856527496433,3.5448306575009094,3.5452707120311358,3.545705810725488,3.5461359480286925,3.5465611184452324,3.546981316539538,3.5473965369361777,3.547806774320047,3.548212023436557,3.5486122790918135,3.549007536152805,3.5493977895475814,3.5497830342654324,3.5501632653570643,3.5505384779347753,3.5509086671726258,3.551273828306614,3.5516339566348405,3.551989047517672,3.552339096377914,3.552684098700967,3.553024050034988,3.5533589459910493,3.553688782243293,3.5540135545290883,3.55433325864918,3.5546478904678396,3.554957445913012,3.555261920976462,3.555561311713916,3.5558556142452056,3.5561448247544,3.5564289394899533,3.556707954764828,3.556981866956634,3.5572506725077555,3.5575143679254775,3.5577729497821173,3.5580264147151404,3.558274759427284,3.5585179806866787,3.5587560753269587,3.558989040247382,3.5592168724129376,3.559439568854457,3.559657126668721,3.5598695430185643,3.5600768151329785,3.56027894030721,3.5604759159028614,3.560667739347983,3.560854408137169,3.561035919831645,3.5612122720593615,3.561383462515073,3.561549488960426,3.5617103492240387,3.5618660412015823,3.5620165628558524,3.562161912216846,3.562302087381834,3.562437086515428,3.5625669078496465,3.562691549683983,3.562811010385464,3.5629252883887097,3.563034382195991,3.5631382903772835,3.5632370115703202,3.5633305444806402,3.5634188878816366,3.5635020406146025,3.563580001588769,3.5636527697813487,3.563720344237571,3.563782724070719,3.563839908462161,3.5638918966613757,3.5639386879859893,3.5639802818217916,3.56401667762276,3.564047874911085,3.5640738732771795,3.5640946723797007,3.564110271945559,3.564120671769927,3.564125871716251,3.564125871716251,3.564120671769927,3.564110271945559,3.5640946723797007,3.5640738732771795,3.564047874911085,3.56401667762276,3.5639802818217916,3.5639386879859893,3.5638918966613757,3.563839908462161,3.563782724070719,3.563720344237571,3.5636527697813487,3.563580001588769,3.5635020406146025,3.5634188878816366,3.5633305444806402,3.5632370115703202,3.5631382903772835,3.563034382195991,3.5629252883887097,3.562811010385464,3.562691549683983,3.5625669078496465,3.562437086515428,3.562302087381834,3.562161912216846,3.5620165628558524,3.5618660412015823,3.5617103492240387,3.561549488960426,3.561383462515073,3.5612122720593615,3.561035919831645,3.560854408137169,3.560667739347983,3.5604759159028614,3.56027894030721,3.5600768151329785,3.5598695430185643,3.559657126668721,3.559439568854457,3.5592168724129376,3.558989040247382,3.5587560753269587,3.5585179806866787,3.558274759427284,3.5580264147151404,3.5577729497821173,3.5575143679254775,3.5572506725077555,3.556981866956634,3.556707954764828,3.5564289394899533,3.5561448247544
3.606675154703027,3.607193777179197,3.607707433875301,3.608216118298619,3.6087198240143867,3.6092185446460276,3.6097122738753638,3.6102010054428404,3.6106847331477394,3.6111634508483945,3.6116371524624076,3.6121058319668524,3.61256948339849,3.6130281008539753,3.613481678490061,3.613930210523801,3.614373691232753,3.6148121149551784,3.6152454760902413,3.615673769098203,3.616096988500614,3.616515128880511,3.6169281848826036,3.617336151213462,3.617739022641707,3.61813679399819,3.618529460176175,3.6189170161315225,3.6192994568828647,3.6196767775117817,3.6200489731629744,3.6204160390444398,3.6207779704276355,3.6211347626476535,3.62148641110338,3.621832911257662,3.6221742586374654,3.622510448834039,3.6228414775030693,3.6231673403648275,3.623488033204337,3.6238035518715126,3.624113892281309,3.6244190504138736,3.624719022314682,3.6250138040946864,3.6253033919304487,3.6255877820642817,3.6258669708043834,3.626140954524966,3.626409729666391,3.626673292735291,3.6269316403047003,3.627184769014176,3.62743267556992,3.627675356744895,3.6279128093789432,3.6281450303788976,3.628372016718698,3.6285937654394953,3.62881027364976,3.6290215385253872,3.6292275573097976,3.629428327314039,3.6296238459168797,3.6298141105649084,3.629999118772622,3.630178868122519,3.630353356265184,3.6305225809193744,3.6306865398721038,3.63084523097872,3.6309986521629867,3.6311468014171533,3.631289676802034,3.631427276447073,3.631559598550413,3.631686641378965,3.6318084032684643,3.6319248826235424,3.632036077917768,3.6321419876937195,3.6322426105630283,3.6323379452064306,3.6324279903738175,3.6325127448842798,3.6325922076261503,3.632666377557043,3.6327352537038964,3.6327988351630016,3.632857121100041,3.6329101107501174,3.632957803417777,3.633000198477043,3.6330372953714334,3.633069093613982,3.633095592787254,3.633116792543365,3.6331326926039944,3.6331432927603897,3.6331485928733818,3.6331485928733818,3.6331432927603897,3.6331326926039944,3.633116792543365,3.633095592787254,3.633069093613982,3.6330372953714334,3.633000198477043,3.632957803417777,3.6329101107501174,3.632857121100041,3.6327988351630016,3.6327352537038964,3.632666377557043,3.6325922076261503,3.6325127448842798,3.6324279903738175,3.6323379452064306,3.6322426105630283,3.6321419876937195,3.632036077917768,3.6319248826235424,3.6318084032684643,3.631686641378965,3.631559598550413,3.631427276447073,3.631289676802034,3.6311468014171533,3.6309986521629867,3.63084523097872,3.6306865398721038,3.6305225809193744,3.630353356265184,3.630178868122519,3.629999118772622,3.6298141105649084,3.6296238459168797,3.629428327314039,3.6292275573097976,3.6290215385253872,3.62881027364976,3.6285937654394953,3.628372016718698,3.6281450303788976,3.6279128093789432,3.627675356744895,3.62743267556992,3.627184769014176,3.6269316403047003,3.626673292735291,3.626409729666391,3.626140954524966,3.6258669708043834,3.6255877820642817,3.6253033919304487,3.6250138040946864
3.6751871974617147,3.6757156180300634,3.676238978979417,3.6767572736950456,3.677270495621266,3.677778638261675,3.6782816951793693,3.6787796599971694,3.679272526397838,3.6797602881243017,3.680242938979868,3.6807204728284355,3.6811928835947136,3.6816601652644287,3.682122311884536,3.6825793175634276,3.6830311764711343,3.6834778828395343,3.6839194309625505,3.6843558151963527,3.684787029959555,3.6852130697334085,3.6856339290620004,3.6860496025524405,3.6864600848750544,3.6868653707635684,3.687265455015298,3.6876603324913253,3.6880499981166897,3.6884344468805588,3.6888136738364086,3.6891876741021994,3.6895564428605487,3.6899199753588996,3.690278266909689,3.6906313128905204,3.6909791087443202,3.691321649979502,3.69165893217013,3.691990950956071,3.6923177020431557,3.6926391812033272,3.692955384274793,3.6932663071621734,3.6935719458366516,3.6938722963361106,3.6941673547652805,3.6944571172958787,3.69474158016674,3.6950207396839625,3.695294592221026,3.6955631342189372,3.695826362186347,3.6960842726996788,3.696336862403254,3.6965841280094085,3.6968260662986157,3.697062674119599,3.6972939483894462,3.6975198860937226,3.6977404842865753,3.6979557400908454,3.698165650698167,3.69837021336907,3.698569425433082,3.698763284288819,3.698951787404087,3.699134932315967,3.699312716630907,3.6994851380248104,3.6996521942431144,3.6998138831008798,3.6999702024828633,3.7001211503435987,3.7002667247074696,3.7004069236687784,3.7005417453918206,3.7006711881109475,3.7007952501306334,3.7009139298255342,3.7010272256405474,3.7011351360908717,3.701237659762055,3.701334795310053,3.7014265414612697,3.701512897012613,3.7015938608315317,3.7016694318560606,3.701739609094854,3.70180439162723,3.701863778603197,3.7019177692434857,3.7019663628395825,3.702009558753749,3.7020473564190497,3.702079755339368,3.702106755089431,3.7021283553148177,3.702144555731979,3.7021553561282414,3.7021607563618204,3.7021607563618204,3.7021553561282414,3.702144555731979,3.7021283553148177,3.702106755089431,3.702079755339368,3.7020473564190497,3.702009558753749,3.7019663628395825,3.7019177692434857,3.701863778603197,3.70180439162723,3.701739609094854,3.7016694318560606,3.7015938608315317,3.701512897012613,3.7014265414612697,3.701334795310053,3.701237659762055,3.7011351360908717,3.7010272256405474,3.7009139298255342,3.7007952501306334,3.7006711881109475,3.7005417453918206,3.7004069236687784,3.7002667247074696,3.7001211503435987,3.6999702024828633,3.6998138831008798,3.6996521942431144,3.6994851380248104,3.699312716630907,3.699134932315967,3.698951787404087,3.698763284288819,3.698569425433082,3.69837021336907,3.698165650698167,3.6979557400908454,3.6977404842865753,3.6975198860937226,3.6972939483894462,3.697062674119599,3.6968260662986157,3.6965841280094085,3.696336862403254,3.6960842726996788,3.695826362186347,3.6955631342189372,3.695294592221026,3.6950207396839625,3.69474158016674,3.6944571172958787,3.6941673547652805,3.6938722963361106
3.743688717517303,3.7442269316507675,3.7447599923683805,3.745287892933492,3.745810626669598,3.746328186960558,3.746840567250834,3.7473477610457118,3.747849761911524,3.748346563475879,3.748838159427878,3.7493245435183327,3.7498057095599826,3.7502816514277137,3.7507523630587705,3.751217838452961,3.7516780716728766,3.752133056844091,3.7525827881553693,3.7530272598588708,3.7534664662703476,3.753900401769349,3.754329060799416,3.7547524378682735,3.7551705275480285,3.7555833244753583,3.7559908233517,3.7563930189434354,3.756789906082081,3.757181479664463,3.7575677346529046,3.757948666075399,3.758324269025789,3.7586945386639408,3.7590594702159086,3.7594190589741165,3.7597733002975153,3.760122189611752,3.7604657224093296,3.760803894249772,3.7611367007597805,3.7614641376333853,3.7617862006321054,3.7621028855850973,3.762414188389304,3.7627201050095986,3.7630206314789376,3.763315763898492,3.7636054984377942,3.763889831334873,3.764168758896389,3.764442277497767,3.764710383583324,3.764973073666402,3.765230344329489,3.765482192224342,3.7657286140721116,3.7659696066634543,3.7662051668586547,3.766435291587732,3.7666599778505563,3.766879222716952,3.7670930233268085,3.767301376890179,3.767504280687384,3.7677017320691113,3.7678937284565066,3.768080267341272,3.7682613462857533,3.7684369629230288,3.7686071149569984,3.7687718001624635,3.7689310163852063,3.7690847615420706,3.7692330336210422,3.7693758306813088,3.769513150853343,3.769644992338965,3.7697713534114072,3.769892232415379,3.7700076277671264,3.770117537954488,3.7702219615369534,3.7703208971457105,3.770414343483703,3.770502299325668,3.770584763518188,3.77066173497973,3.7707332127006867,3.770799195743409,3.7708596832422447,3.7709146744035698,3.770964168505814,3.7710081648994884,3.7710466630072124,3.7710796623237295,3.7711071624159302,3.7711291629228643,3.771145663555757,3.771156664098018,3.7711621644052475,3.7711621644052475,3.771156664098018,3.771145663555757,3.7711291629228643,3.7711071624159302,3.7710796623237295,3.7710466630072124,3.7710081648994884,3.770964168505814,3.7709146744035698,3.7708596832422447,3.770799195743409,3.7707332127006867,3.77066173497973,3.770584763518188,3.770502299325668,3.770414343483703,3.7703208971457105,3.7702219615369534,3.770117537954488,3.7700076277671264,3.769892232415379,3.7697713534114072,3.769644992338965,3.769513150853343,3.7693758306813088,3.7692330336210422,3.7690847615420706,3.7689310163852063,3.7687718001624635,3.7686071149569984,3.7684369629230288,3.7682613462857533,3.768080267341272,3.7678937284565066,3.7677017320691113,3.767504280687384,3.767301376890179,3.7670930233268085,3.766879222716952,3.7666599778505563,3.766435291587732,3.7662051668586547,3.7659696066634543,3.7657286140721116,3.765482192224342,3.765230344329489,3.764973073666402,3.764710383583324,3.764442277497767,3.764168758896389,3.763889831334873,3.7636054984377942,3.763315763898492,3.7630206314789376,3.7627201050095986
3.812179521506766,3.812727524596049,3.81327028051546,3.813807782406531,3.8143400234720195,3.81486699697615,3.815388696244838,3.8159051146659264,3.8164162456894126,3.8169220828276753,3.817422619655696,3.8179178498112876,3.8184077669953127,3.8188923649718998,3.8193716375686657,3.819845578676927,3.820314182251914,3.8207774423129823,3.8212353529438188,3.821687908292656,3.8221351025724664,3.8225769300611745,3.8230133851018526,3.823444462102922,3.8238701555383474,3.8242904599478327,3.8247053699370137,3.8251148801776456,3.8255189854077947,3.8259176804320214,3.826310960121564,3.8266988194145224,3.8270812533160345,3.8274582568984554,3.827829825301529,3.8281959537325663,3.828556637466607,3.8289118718465973,3.829261652283546,3.829605974256695,3.829944833313677,3.8302782250706757,3.8306061452125806,3.8309285894931424,3.831245553735122,3.831557033830446,3.8318630257403465,3.8321635254955093,3.8324585291962174,3.8327480330124866,3.8330320331842067,3.8333105260212754,3.833583507903728,3.8338509752818726,3.834112924676414,3.8343693526785785,3.834620255950242,3.83486563122404,3.835105475303496,3.835339785063131,3.8355685574485765,3.835791789476688,3.8360094782356473,3.8362216208850737,3.8364282146561197,3.8366292568515807,3.836824744845981,3.837014676085678,3.8371990480889515,3.837377858446092,3.8375511048194895,3.8377187849437195,3.8378808966256233,3.838037437744386,3.8381884062516183,3.838333800171426,3.838473617600485,3.838607856708109,3.838736515736315,3.838859592999889,3.838977086886448,3.839088995856494,3.8391953184434757,3.839296053253839,3.839391198967078,3.839480754335781,3.8395647181856822,3.839643089415695,3.8397158669979627,3.8397830499778864,3.8398446374741657,3.8399006286788286,3.839951022857262,3.8399958193482373,3.8400350175639337,3.8400686169899645,3.8400966171853885,3.8401190177827327,3.840135818488001,3.8401470190806872,3.8401526194137823,3.8401526194137823,3.8401470190806872,3.840135818488001,3.8401190177827327,3.8400966171853885,3.8400686169899645,3.8400350175639337,3.8399958193482373,3.839951022857262,3.8399006286788286,3.8398446374741657,3.8397830499778864,3.8397158669979627,3.839643089415695,3.8395647181856822,3.839480754335781,3.839391198967078,3.839296053253839,3.8391953184434757,3.839088995856494,3.838977086886448,3.838859592999889,3.838736515736315,3.838607856708109,3.838473617600485,3.838333800171426,3.8381884062516183,3.838037437744386,3.8378808966256233,3.8377187849437195,3.8375511048194895,3.837377858446092,3.8371990480889515,3.837014676085678,3.836824744845981,3.8366292568515807,3.8364282146561197,3.8362216208850737,3.8360094782356473,3.835791789476688,3.8355685574485765,3.835339785063131,3.835105475303496,3.83486563122404,3.834620255950242,3.8343693526785785,3.834112924676414,3.8338509752818726,3.833583507903728,3.8333105260212754,3.8330320331842067,3.8327480330124866,3.8324585291962174,3.8321635254955093,3.8318630257403465,3.831557033830446
3.8806594162500754,3.8812172036037773,3.881769650077188,3.8823167486901142,3.882858492524678,3.883394874725558,3.883925888500221,3.8844515271191615,3.884971783916128,3.885486652288364,3.885996125696826,3.886500197666415,3.8869988617862035,3.8874921117096544,3.8879799411548457,3.888462343904685,3.8889393138071284,3.889410844775398,3.8898769307881897,3.890337565889886,3.890792744190766,3.89124245986721,3.8916867071619055,3.8921254803840437,3.89255877390953,3.8929865821811704,3.8934088997088763,3.893825721069853,3.8942370409087896,3.8946428539380573,3.895043154937882,3.8954379387565403,3.8958272003105403,3.8962109345847926,3.896589136632803,3.896961801576834,3.8973289246080878,3.897690500986869,3.898046526042763,3.8983969951747928,3.898741903851587,3.8990812476115435,3.8994150220629855,3.899743222884317,3.9000658458241815,3.9003828867016095,3.900694341406176,3.901000205898132,3.901300476208568,3.9015951484395437,3.901884218764231,3.902167683427052,3.9024455387438146,3.902717781101843,3.9029844069601087,3.903245412849356,3.9035007953722314,3.9037505512034008,3.903994677089672,3.904233169850111,3.9044660263761566,3.9046932436317343,3.904914818653365,3.9051307485502695,3.9053410305044776,3.905545661770926,3.9057446396775597,3.905937961625426,3.9061256250887766,3.9063076276151443,3.906483966825448,3.906654640414069,3.9068196461489344,3.906978981871606,3.9071326454973483,3.9072806350152134,3.9074229484881067,3.907559584052862,3.9076905399203072,3.9078158143753297,3.9079354057769375,3.9080493125583216,3.908157533226911,3.9082600663644262,3.908356910626935,3.9084480647448943,3.9085335275232014,3.9086132978412396,3.908687374652914,3.9087557569866895,3.9088184439456293,3.9088754347074275,3.908926728524438,3.9089723247236985,3.9090122227069646,3.9090464219507193,3.9090749220062007,3.9090977224994132,3.9091148231311474,3.9091262236769837,3.9091319239873075,3.9091319239873075,3.9091262236769837,3.9091148231311474,3.9090977224994132,3.9090749220062007,3.9090464219507193,3.9090122227069646,3.9089723247236985,3.908926728524438,3.9088754347074275,3.9088184439456293,3.9087557569866895,3.908687374652914,3.9086132978412396,3.9085335275232014,3.9084480647448943,3.908356910626935,3.9082600663644262,3.908157533226911,3.9080493125583216,3.9079354057769375,3.9078158143753297,3.9076905399203072,3.907559584052862,3.9074229484881067,3.9072806350152134,3.9071326454973483,3.906978981871606,3.9068196461489344,3.906654640414069,3.906483966825448,3.9063076276151443,3.9061256250887766,3.905937961625426,3.9057446396775597,3.905545661770926,3.9053410305044776,3.9051307485502695,3.904914818653365,3.9046932436317343,3.9044660263761566,3.904233169850111,3.903994677089672,3.9037505512034008,3.9035007953722314,3.903245412849356,3.9029844069601087,3.902717781101843,3.9024455387438146,3.902167683427052,3.901884218764231,3.9015951484395437,3.901300476208568,3.901000205898132,3.900694341406176,3.9003828867016095
3.9491282087534043,3.949695775598155,3.9502579078965594,3.9508145985467964,3.95136584051045,3.9519116268127505,3.9524519505428115,3.95298680485387,3.953516182963529,3.954040078153982,3.9545584837722543,3.9550713932304293,3.9555788000058802,3.9560806976414917,3.9565770797458906,3.957067939993666,3.9575532721255877,3.958033069948829,3.958507327337179,3.9589760382312598,3.9594391966387374,3.9598967966345304,3.960348832361019,3.960795298028255,3.9612361879141553,3.961671496364713,3.96210121779419,3.962525346685318,3.962943877589492,3.963356805126959,3.9637641239870134,3.9641658289281825,3.96456191477841,3.964952376435245,3.965337208866016,3.965716407108012,3.96608996626866,3.966457881525701,3.9668201481273537,3.9671767613924924,3.9675277167108076,3.967873009542974,3.9682126354208087,3.968546589947434,3.9688748687974345,3.9691974677170094,3.969514382524125,3.969825609108667,3.970131143432586,3.9704309815300376,3.9707251195075353,3.9710135535440787,3.9712962798913,3.971573294873591,3.9718445948882413,3.972110176405564,3.972370035969025,3.972624170195366,3.9728725757747254,3.973115249470762,3.973352188120768,3.97358338863578,3.9738088480007008,3.974028563274396,3.9742425315898107,3.974450750154065,3.9746532162485595,3.9748499272290743,3.975040880525862,3.9752260736437397,3.9754055041621847,3.9755791697354184,3.97574706809249,3.9759091970373635,3.97606555444899,3.9762161382813948,3.976360946563744,3.976499977400416,3.9766332289710764,3.9767606995307356,3.9768823874098227,3.9769982910142354,3.9771084088254045,3.977212739400347,3.9773112813717226,3.977404033447874,3.977490994412886,3.9775721631266197,3.9776475385247574,3.977717119618845,3.9777809054963242,3.9778388953205637,3.977891088330896,3.977937483842638,3.977978081247122,3.9780128800117156,3.9780418796798376,3.978065079870982,3.978082480280724,3.97809408068074,3.978099880918802,3.978099880918802,3.97809408068074,3.978082480280724,3.978065079870982,3.9780418796798376,3.9780128800117156,3.977978081247122,3.977937483842638,3.977891088330896,3.9778388953205637,3.9777809054963242,3.977717119618845,3.9776475385247574,3.9775721631266197,3.977490994412886,3.977404033447874,3.9773112813717226,3.977212739400347,3.9771084088254045,3.9769982910142354,3.9768823874098227,3.9767606995307356,3.9766332289710764,3.976499977400416,3.976360946563744,3.9762161382813948,3.97606555444899,3.9759091970373635,3.97574706809249,3.9755791697354184,3.9754055041621847,3.9752260736437397,3.975040880525862,3.9748499272290743,3.9746532162485595,3.974450750154065,3.9742425315898107,3.974028563274396,3.9738088480007008,3.97358338863578,3.973352188120768,3.973115249470762,3.9728725757747254,3.972624170195366,3.972370035969025,3.972110176405564,3.9718445948882413,3.971573294873591,3.9712962798913,3.9710135535440787,3.9707251195075353,3.9704309815300376,3.970131143432586,3.969825609108667,3.969514382524125,3.9691974677170094
4.017585706212337,4.018163047692933,4.018734861006248,4.019301138928942,4.019861874302155,4.0204170600317655,4.020966689088635,4.02151075450884,4.022049249393929,4.022582166911144,4.023109500293675,4.023631242840875,4.024147387918514,4.024657928958989,4.025162859461568,4.025662172992609,4.026155863185784,4.0266439237423075,4.027126348431145,4.027603131089246,4.028074265621748,4.028539746002194,4.02899956627274,4.029453720544374,4.029902202997115,4.030345007880216,4.030782129512375,4.031213562281928,4.031639300647045,4.032059339135937,4.032473672347035,4.032882294949194,4.03328520168187,4.033682387355316,4.034073846850759,4.034459575120585,4.03483956718852,4.035213818149801,4.035582323171357,4.0359450774919745,4.036302076422474,4.03665331534587,4.03699878971754,4.037338495065386,4.037672426989998,4.038000581164799,4.038322953336216,4.038639539323818,4.038950335020476,4.039255336392505,4.0395545394798065,4.03984794039602,4.04013553532865,4.040417320539213,4.0406932923633665,4.040963447211041,4.041227781566575,4.041486291988833,4.041738975111333,4.041985827642371,4.042226846365135,4.042462028137824,4.0426913698937605,4.042914868641501,4.043132521464943,4.043344325523433,4.043550278051868,4.043750376360793,4.043944617836504,4.044132999941137,4.044315520212763,4.044492176265474,4.044662965789476,4.0448278865511655,4.044986936393215,4.045140113234649,4.045287415070922,4.045428839973985,4.0455643860923685,4.045694051651232,4.045817834952445,4.045935734374639,4.04604774837327,4.046153875480669,4.046254114306107,4.046348463535835,4.046436921933136,4.04651948833837,4.046596161669014,4.046666940919708,4.046731825162279,4.046790813545789,4.046843905296556,4.04689109971819,4.0469323961916075,4.046967794175066,4.046997293204176,4.047020892891922,4.047038592928672,4.047050393082194,4.047056293197663,4.047056293197663,4.047050393082194,4.047038592928672,4.047020892891922,4.046997293204176,4.046967794175066,4.0469323961916075,4.04689109971819,4.046843905296556,4.046790813545789,4.046731825162279,4.046666940919708,4.046596161669014,4.04651948833837,4.046436921933136,4.046348463535835,4.046254114306107,4.046153875480669,4.04604774837327,4.045935734374639,4.045817834952445,4.045694051651232,4.0455643860923685,4.045428839973985,4.045287415070922,4.045140113234649,4.044986936393215,4.0448278865511655,4.044662965789476,4.044492176265474,4.044315520212763,4.044132999941137,4.043944617836504,4.043750376360793,4.043550278051868,4.043344325523433,4.043132521464943,4.042914868641501,4.0426913698937605,4.042462028137824,4.042226846365135,4.041985827642371,4.041738975111333,4.041486291988833,4.041227781566575,4.040963447211041,4.0406932923633665,4.040417320539213,4.04013553532865,4.03984794039602,4.0395545394798065,4.039255336392505,4.038950335020476,4.038639539323818,4.038322953336216,4.038000581164799
4.086031716015057,4.086618827194595,4.087200316631809,4.087776176981927,4.088346400965756,4.088910981369923,4.089469911047129,4.090023182916395,4.09057078996331,4.091112725240265,4.0916489818667,4.092179553029345,4.092704431982449,4.093223612048023,4.093737086616062,4.094244849144786,4.094746893160863,4.09524321225963,4.095733800105327,4.096218650431314,4.09669775704028,4.097171113804484,4.097638714665944,4.098100553636667,4.098556624798853,4.099006922305102,4.099451440378623,4.099890173313437,4.100323115474573,4.100750261298279,4.101171605292202,4.101587142035597,4.101996866179509,4.1024007724469715,4.102798855633181,4.103191110605695,4.103577532304603,4.1039581157427145,4.104332856005734,4.10470174825243,4.1050647877148165,4.105421969698319,4.105773289581938,4.1061187428184205,4.106458324934419,4.10679203153065,4.107119858282054,4.107441800937952,4.1077578553221885,4.108068017333295,4.1083722829446225,4.108670648204501,4.108963109236365,4.1092496622389065,4.109530303486206,4.109805029327864,4.110073836189138,4.110336720571064,4.110593679050594,4.110844708280703,4.111089804990525,4.1113289659854635,4.111562188147306,4.111789468434341,4.112010803881464,4.112226191600286,4.112435628779238,4.1126391126836745,4.112836640655966,4.113028210115608,4.113213818559297,4.113393463561037,4.113567142772216,4.1137348539217005,4.1138965948159125,4.114052363338908,4.114202157452454,4.11434597519611,4.114483814687289,4.114615674121333,4.114741551771571,4.114861445989393,4.1149753552043,4.115083277923964,4.115185212734286,4.115281158299438,4.115371113361927,4.115455076742624,4.115533047340818,4.115605024134253,4.115671006179163,4.115730992610309,4.115784982641011,4.1158329755631735,4.115874970747315,4.115910967642588,4.115940965776799,4.11596496475643,4.115982964266647,4.115994964071314,4.116000964013006,4.116000964013006,4.115994964071314,4.115982964266647,4.11596496475643,4.115940965776799,4.115910967642588,4.115874970747315,4.1158329755631735,4.115784982641011,4.115730992610309,4.115671006179163,4.115605024134253,4.115533047340818,4.115455076742624,4.115371113361927,4.115281158299438,4.115185212734286,4.115083277923964,4.1149753552043,4.114861445989393,4.114741551771571,4.114615674121333,4.114483814687289,4.11434597519611,4.114202157452454,4.114052363338908,4.1138965948159125,4.1137348539217005,4.113567142772216,4.113393463561037,4.113213818559297,4.113028210115608,4.112836640655966,4.1126391126836745,4.112435628779238,4.112226191600286,4.112010803881464,4.111789468434341,4.111562188147306,4.1113289659854635,4.111089804990525,4.110844708280703,4.110593679050594,4.110336720571064,4.110073836189138,4.109805029327864,4.109530303486206,4.1092496622389065,4.108963109236365,4.108670648204501,4.1083722829446225,4.108068017333295,4.1077578553221885,4.107441800937952,4.107119858282054,4.10679203153065
4.154466045745539,4.155062921605561,4.155654082194855,4.156239520047331,4.156819227763557,4.15739319801101,4.1579614235243385,4.158523897105601,4.159080611624527,4.159631560018752,4.160176735294073,4.1607161305246825,4.161249738853411,4.16177755349197,4.162299567721184,4.162815774891224,4.163326168421841,4.163830741802592,4.164329488593076,4.16482240242315,4.165309476993157,4.165790706074142,4.166266083508079,4.166735603208077,4.167199259158602,4.167657045415683,4.168108956107123,4.168554985432708,4.168995127664409,4.169429377146584,4.169857728296181,4.170280175602929,4.17069671362954,4.171107337011898,4.171512040459248,4.171910818754388,4.172303666753851,4.172690579388081,4.173071551661631,4.173446578653324,4.1738156555164325,4.17417877747886,4.174535939843297,4.1748871379874,4.1752323673639475,4.175571623501012,4.175904902002113,4.176232198546377,4.1765535088886905,4.176868828859852,4.177178154366727,4.177481481392384,4.177778805996252,4.178070124314248,4.17835543255893,4.1786347270196185,4.178908004062545,4.179175260130967,4.179436491745314,4.179691695503295,4.179940868080034,4.180184006228181,4.180421106778041,4.180652166637672,4.180877182793011,4.181096152307978,4.181309072324576,4.181515940063007,4.181716752821761,4.181911507977721,4.18210020298625,4.1822828353812955,4.182459402775468,4.18262990286013,4.182794333405485,4.182952692260651,4.183104977353744,4.183251186691951,4.1833913183616005,4.183525370528236,4.183653341436681,4.1837752294111,4.1838910328550645,4.184000750251607,4.184104380163278,4.184201921232197,4.184293372180104,4.184378731808405,4.1844579989982105,4.18453117271039,4.184598251985593,4.184659235944293,4.184714123786824,4.184762914793397,4.184805608324137,4.184842203819103,4.184872700798303,4.184897098861723,4.1849153976893305,4.184927597041092,4.184933696756979,4.184933696756979,4.184927597041092,4.1849153976893305,4.184897098861723,4.184872700798303,4.184842203819103,4.184805608324137,4.184762914793397,4.184714123786824,4.184659235944293,4.184598251985593,4.18453117271039,4.1844579989982105,4.184378731808405,4.184293372180104,4.184201921232197,4.184104380163278,4.184000750251607,4.1838910328550645,4.1837752294111,4.183653341436681,4.183525370528236,4.1833913183616005,4.183251186691951,4.183104977353744,4.182952692260651,4.182794333405485,4.18262990286013,4.182459402775468,4.1822828353812955,4.18210020298625,4.181911507977721,4.181716752821761,4.181515940063007,4.181309072324576,4.181096152307978,4.180877182793011,4.180652166637672,4.180421106778041,4.180184006228181,4.179940868080034,4.179691695503295,4.179436491745314,4.179175260130967,4.178908004062545,4.1786347270196185,4.17835543255893,4.178070124314248,4.177778805996252,4.177481481392384,4.177178154366727,4.176868828859852,4.1765535088886905,4.176232198546377,4.175904902002113,4.175571623501012
4.222888503186721,4.223495138627352,4.224095965316255,4.224690975666121,4.225280162157386,4.225863517338484,4.226441033826107,4.227012704305455,4.2275785215305,4.228138478324221,4.228692567578866,4.229240782256192,4.2297831153877095,4.230319560074924,4.230850109489584,4.231374756873905,4.231893495540815,4.232406318874186,4.2329132203290625,4.233414193431893,4.233909231780757,4.234398329045583,4.23488147896838,4.235358675363449,4.235829912117609,4.236295183190398,4.2367544826143,4.237207804494948,4.237655143011333,4.238096492416009,4.238531847035297,4.238961201269485,4.2393845495930265,4.2398018865547344,4.240213206777977,4.240618504960864,4.2410177758764425,4.241411014372876,4.241798215373625,4.242179373877642,4.24255448495953,4.24292354376973,4.243286545534696,4.2436434855570555,4.243994359215786,4.244339161966374,4.244677889340979,4.245010536948599,4.245337100475219,4.245657575683971,4.245971958415286,4.246280244587036,4.246582430194691,4.246878511311458,4.247168484088419,4.247452344754675,4.247730089617475,4.248001715062359,4.248267217553275,4.248526593632719,4.248779839921851,4.249026953120619,4.249267930007882,4.24950276744152,4.249731462358551,4.2499540117752455,4.250170412787224,4.250380662569571,4.250584758376934,4.250782697543623,4.250974477483709,4.2511600956911115,4.251339549739698,4.251512837283365,4.251679956056129,4.251840903872197,4.2519956786260655,4.252144278292576,4.252286700927003,4.25242294466512,4.252553007723261,4.252676888398399,4.252794585068194,4.252906096191062,4.253011420306224,4.253110556033765,4.253203502074679,4.253290257210918,4.253370820305441,4.253445190302247,4.25351336622642,4.253575347184162,4.253631132362824,4.253680721030942,4.253724112538252,4.2537613063157265,4.253792301875587,4.253817098811326,4.253835696797718,4.253848095590832,4.253854295028047,4.253854295028047,4.253848095590832,4.253835696797718,4.253817098811326,4.253792301875587,4.2537613063157265,4.253724112538252,4.253680721030942,4.253631132362824,4.253575347184162,4.25351336622642,4.253445190302247,4.253370820305441,4.253290257210918,4.253203502074679,4.253110556033765,4.253011420306224,4.252906096191062,4.252794585068194,4.252676888398399,4.252553007723261,4.25242294466512,4.252286700927003,4.252144278292576,4.2519956786260655,4.251840903872197,4.251679956056129,4.251512837283365,4.251339549739698,4.2511600956911115,4.250974477483709,4.250782697543623,4.250584758376934,4.250380662569571,4.250170412787224,4.2499540117752455,4.249731462358551,4.24950276744152,4.249267930007882,4.249026953120619,4.248779839921851,4.248526593632719,4.248267217553275,4.248001715062359,4.247730089617475,4.247452344754675,4.247168484088419,4.246878511311458,4.246582430194691,4.246280244587036,4.245971958415286,4.245657575683971,4.245337100475219,4.245010536948599,4.244677889340979,4.244339161966374
4.291298896323679,4.291915286163775,4.292525773819298,4.29313035158183,4.293729011811781,4.294321746938643,4.294908549461259,4.295489411948074,4.296064327037401,4.296633287437666,4.297196285927669,4.297753315356829,4.298304368645433,4.2988494387848855,4.299388518837945,4.299921601938974,4.300448681294172,4.300969750181814,4.301484801952489,4.301993830029327,4.3024968279082305,4.302993789158105,4.303484707421084,4.303969576412747,4.3044483899223485,4.304921141813026,4.305387826022031,4.305848436560922,4.306302967515796,4.306751413047482,4.307193767391759,4.307630024859548,4.308060179837126,4.3084842267863115,4.308902160244671,4.309313974825706,4.30971966521905,4.310119226190653,4.3105126525829665,4.310899939315134,4.311281081383163,4.3116560738601075,4.312024911896242,4.312387590719241,4.31274410563434,4.313094452024506,4.313438625350607,4.313776621151572,4.314108435044546,4.314434062725054,4.314753499967151,4.315066742623574,4.315373786625894,4.315674627984657,4.315969262789529,4.316257687209441,4.316539897492721,4.316815889967231,4.317085661040499,4.317349207199854,4.317606525012536,4.317857611125843,4.318102462267235,4.3183410752444535,4.318573446945649,4.31879957433948,4.3190194544752245,4.319233084482894,4.319440461573334,4.319641583038318,4.319836446250659,4.320025048664289,4.320207387814366,4.320383461317354,4.3205532668711095,4.320716802254973,4.320874065329837,4.321025054038239,4.32116976640442,4.32130820053441,4.321440354616085,4.321566226919244,4.321685815795664,4.321799119679165,4.3219061370856595,4.322006866613215,4.322101306942102,4.322189456834838,4.322271315136239,4.322346880773457,4.32241615275602,4.32247913017587,4.322535812207392,4.32258619810745,4.322630287215408,4.322668078953159,4.322699572825141,4.322724768418359,4.322743665402402,4.322756263529447,4.322762562634274,4.322762562634274,4.322756263529447,4.322743665402402,4.322724768418359,4.322699572825141,4.322668078953159,4.322630287215408,4.32258619810745,4.322535812207392,4.32247913017587,4.32241615275602,4.322346880773457,4.322271315136239,4.322189456834838,4.322101306942102,4.322006866613215,4.3219061370856595,4.321799119679165,4.321685815795664,4.321566226919244,4.321440354616085,4.32130820053441,4.32116976640442,4.321025054038239,4.320874065329837,4.320716802254973,4.3205532668711095,4.320383461317354,4.320207387814366,4.320025048664289,4.319836446250659,4.319641583038318,4.319440461573334,4.319233084482894,4.3190194544752245,4.31879957433948,4.318573446945649,4.3183410752444535,4.318102462267235,4.317857611125843,4.317606525012536,4.317349207199854,4.317085661040499,4.316815889967231,4.316539897492721,4.316257687209441,4.315969262789529,4.315674627984657,4.315373786625894,4.315066742623574,4.314753499967151,4.314434062725054,4.314108435044546,4.313776621151572,4.313438625350607,4.313094452024506
4.359697033346784,4.360323172324075,4.36094331573286,4.361557455743723,4.36216558459715,4.362767694603804,4.363363778144777,4.363953827671867,4.364537835707833,4.365115794846651,4.365687697753772,4.366253537166381,4.36681330589364,4.367366996816947,4.367914602890177,4.368456117139929,4.368991532665774,4.369520842640485,4.370044040310287,4.370561118995083,4.3710720720886975,4.3715768930591,4.372075575448635,4.372568112874256,4.373054499027736,4.373534727675906,4.374008792660858,4.374476687900173,4.374938407387131,4.375393945190926,4.37584329545687,4.376286452406603,4.3767234103382995,4.377154163626866,4.377578706724145,4.3779970341591055,4.378409140538044,4.378815020544772,4.3792146689408025,4.379608080565546,4.379995250336481,4.3803761732493465,4.380750844378311,4.3811192588761605,4.381481411974454,4.381837298983709,4.3821869152935635,4.382530256372941,4.38286731777021,4.383198095113351,4.3835225841101035,4.383840780548127,4.384152680295149,4.384458279299117,4.384757573588338,4.3850505592716225,4.385337232538432,4.385617589659007,4.385891626984504,4.386159340947131,4.386420728060268,4.3866757849186016,4.386924508198241,4.387166894656843,4.3874029411337245,4.387632644549978,4.3878560019085855,4.3880730102945265,4.388283666874879,4.388487968898924,4.388685913698253,4.3888774986868455,4.389062721361186,4.389241579300338,4.38941407016604,4.389580191702783,4.389739941737903,4.389893318181647,4.390040319027263,4.3901809423510585,4.39031518631248,4.390443049154178,4.390564529202067,4.390679624865395,4.390788334636787,4.390890657092317,4.390986590891545,4.391076134777575,4.391159287577096,4.391236048200429,4.391306415641558,4.39137038897818,4.391427967371728,4.391479150067402,4.391523936394203,4.391562325764952,4.391594317676313,4.391619911708812,4.391639107526851,4.39165190487872,4.391658303596608,4.391658303596608,4.39165190487872,4.391639107526851,4.391619911708812,4.391594317676313,4.391562325764952,4.391523936394203,4.391479150067402,4.391427967371728,4.39137038897818,4.391306415641558,4.391236048200429,4.391159287577096,4.391076134777575,4.390986590891545,4.390890657092317,4.390788334636787,4.390679624865395,4.390564529202067,4.390443049154178,4.39031518631248,4.3901809423510585,4.390040319027263,4.389893318181647,4.389739941737903,4.389580191702783,4.38941407016604,4.389241579300338,4.389062721361186,4.3888774986868455,4.388685913698253,4.388487968898924,4.388283666874879,4.3880730102945265,4.3878560019085855,4.387632644549978,4.3874029411337245,4.387166894656843,4.386924508198241,4.3866757849186016,4.386420728060268,4.386159340947131,4.385891626984504,4.385617589659007,4.385337232538432,4.3850505592716225,4.384757573588338,4.384458279299117,4.384152680295149,4.383840780548127,4.3835225841101035,4.383198095113351,4.38286731777021,4.382530256372941,4.3821869152935635,4.381837298983709
4.42808272265486,4.4287186054261,4.429348399294569,4.429972096309958,4.430589688592943,4.431201168335457,4.431806527800963,4.432405759324708,4.432998855314004,4.43358580824848,4.434166610680346,4.4347412552346475,4.435309734609531,4.4358720415764825,4.436428168980596,4.436978109740807,4.43752185685015,4.438059403375997,4.4385907424603,4.439115867319839,4.439634771246443,4.440147447607241,4.440653889844883,4.441154091477782,4.441648046100328,4.442135747383119,4.44261718907319,4.4430923649942216,4.44356126904677,4.444023895208466,4.444480237534246,4.44493029015655,4.445374047285531,4.4458115032092635,4.446242652293944,4.446667488984087,4.44708600780273,4.447498203351617,4.447904070311404,4.448303603441836,4.448696797581941,4.449083647650209,4.449464148644775,4.449838295643601,4.450206083804645,4.450567508366037,4.450922564646252,4.451271248044272,4.451613554039756,4.451949478193197,4.452279016146084,4.452602163621059,4.452918916422066,4.453229270434507,4.453533221625387,4.453830766043459,4.4541218998193655,4.454406619165781,4.454684920377543,4.454956799831792,4.455222253988093,4.4554812793885725,4.455733872658039,4.4559800305041035,4.4562197497173,4.456453027171202,4.456679859822535,4.456900244711286,4.457114178960808,4.457321659777931,4.457522684453058,4.457717250360259,4.457905354957378,4.458086995786116,4.4582621704721195,4.458430876725073,4.458593112338775,4.458748875191224,4.458898163244693,4.459040974545802,4.459177307225592,4.459307159499589,4.459430529667872,4.459547416115137,4.459657817310745,4.459761731808794,4.459859158248158,4.459950095352541,4.460034541930525,4.46011249687561,4.46018395916626,4.4602489278659325,4.460307402123121,4.460359381171376,4.460404864329344,4.460443851000782,4.460476340674585,4.460502332924808,4.460521827410671,4.460534823876582,4.460541322152138,4.460541322152138,4.460534823876582,4.460521827410671,4.460502332924808,4.460476340674585,4.460443851000782,4.460404864329344,4.460359381171376,4.460307402123121,4.4602489278659325,4.46018395916626,4.46011249687561,4.460034541930525,4.459950095352541,4.459859158248158,4.459761731808794,4.459657817310745,4.459547416115137,4.459430529667872,4.459307159499589,4.459177307225592,4.459040974545802,4.458898163244693,4.458748875191224,4.458593112338775,4.458430876725073,4.4582621704721195,4.458086995786116,4.457905354957378,4.457717250360259,4.457522684453058,4.457321659777931,4.457114178960808,4.456900244711286,4.456679859822535,4.456453027171202,4.4562197497173,4.4559800305041035,4.455733872658039,4.4554812793885725,4.455222253988093,4.454956799831792,4.454684920377543,4.454406619165781,4.4541218998193655,4.453830766043459,4.453533221625387,4.453229270434507,4.452918916422066,4.452602163621059,4.452279016146084,4.451949478193197,4.451613554039756,4.451271248044272,4.450922564646252,4.450567508366037
4.496455772858322,4.497101393999441,4.497740832953939,4.49837408165073,4.499001132090789,4.499621976347434,4.500236606566595,4.500845014967088,4.501447193840879,4.5020431355533574,4.5026328325435925,4.503216277324604,4.503793462483616,4.504364380682312,4.504929024657099,4.505487387219351,4.506039461255669,4.506585239728116,4.5071247156744745,4.507657882208488,4.5081847325200926,4.5087052598756685,4.509219457618266,4.509727319167846,4.510228838021503,4.510724007753702,4.511212822016501,4.511695274539769,4.512171359131422,4.512641069677623,4.513104400143011,4.513561344570906,4.514011897083528,4.514456051882197,4.514893803247545,4.515325145539708,4.515750073198544,4.51616858074381,4.516580662775374,4.516986313973397,4.517385529098523,4.51777830299207,4.5181646305762095,4.518544506854152,4.5189179269103175,4.519284885910523,4.519645379102141,4.519999401814284,4.52034694945796,4.520688017526243,4.521022601594431,4.521350697320207,4.521672300443795,4.52198740678811,4.5222960122589155,4.522598112844955,4.522893704618116,4.5231827837335565,4.52346534642985,4.523741389029117,4.524010907937163,4.524273899643602,4.524530360721991,4.524780287829943,4.525023677709253,4.525260527186021,4.525490833170759,4.525714592658503,4.525931802728927,4.526142460546445,4.526346563360311,4.526544108504726,4.526735093398929,4.526919515547289,4.527097372539401,4.52726866205017,4.527433381839894,4.527591529754352,4.5277431037248705,4.52788810176841,4.5280265219876314,4.528158362570964,4.528283621792675,4.528402298012931,4.528514389677854,4.528619895319582,4.528718813556325,4.528811143092404,4.528896882718311,4.528976031310749,4.529048587832663,4.529114551333294,4.529173920948205,4.529226695899309,4.529272875494905,4.529312459129697,4.529345446284821,4.5293718365278615,4.529391629512866,4.529404824980361,4.529411422757356,4.529411422757356,4.529404824980361,4.529391629512866,4.5293718365278615,4.529345446284821,4.529312459129697,4.529272875494905,4.529226695899309,4.529173920948205,4.529114551333294,4.529048587832663,4.528976031310749,4.528896882718311,4.528811143092404,4.528718813556325,4.528619895319582,4.528514389677854,4.528402298012931,4.528283621792675,4.528158362570964,4.5280265219876314,4.52788810176841,4.5277431037248705,4.527591529754352,4.527433381839894,4.52726866205017,4.527097372539401,4.526919515547289,4.526735093398929,4.526544108504726,4.526346563360311,4.526142460546445,4.525931802728927,4.525714592658503,4.525490833170759,4.525260527186021,4.525023677709253,4.524780287829943,4.524530360721991,4.524273899643602,4.524010907937163,4.523741389029117,4.52346534642985,4.5231827837335565,4.522893704618116,4.522598112844955,4.5222960122589155,4.52198740678811,4.521672300443795,4.521350697320207,4.521022601594431,4.520688017526243,4.52034694945796,4.519999401814284,4.519645379102141,4.519284885910523
4.564815992782313,4.565471346788566,4.56612042537552,4.566763220351421,4.567399723597656,4.568029927069039,4.568653822794081,4.569271402875268,4.569882659489336,4.570487584887539,4.571086171395916,4.57167841141556,4.572264297422879,4.572843821969859,4.573416977684323,4.573983757270184,4.574544153507706,4.575098159253748,4.575645767442017,4.57618697108332,4.576721763265797,4.577250137155173,4.57777208599499,4.578287603106854,4.578796681890656,4.579299315824815,4.579795498466504,4.580285223451875,4.580768484496283,4.5812452753945125,4.5817155900209885,4.582179422330003,4.582636766355919,4.583087616213388,4.583531966097554,4.583969810284263,4.584401143130264,4.584825959073411,4.585244252632858,4.585656018409256,4.586061251084943,4.586459945424137,4.586852096273117,4.587237698560413,4.587616747296981,4.587989237576387,4.588355164574979,4.588714523552057,4.589067309850047,4.589413518894666,4.589753146195087,4.590086187344096,4.5904126380182575,4.59073249397806,4.591045751068077,4.591352405217112,4.591652452438342,4.59194588882947,4.592232710572856,4.592512913935657,4.592786495269967,4.59305345101294,4.593313777686927,4.593567471899591,4.59381453034404,4.594054949798941,4.594288727128637,4.59451585928326,4.594736343298841,4.594950176297422,4.595157355487151,4.59535787816239,4.595551741703813,4.595738943578497,4.595919481340016,4.596093352628531,4.59626055517087,4.596421086780622,4.596574945358199,4.596722128890931,4.596862635453123,4.596996463206136,4.59712361039845,4.597244075365724,4.5973578565308655,4.597464952404073,4.597565361582911,4.5976590827523385,4.5977461146847745,4.597826456240132,4.597900106365867,4.597967064097011,4.5980273285562046,4.5980808989537385,4.598127774587575,4.598167954843374,4.598201439194517,4.598228227202128,4.598248318515083,4.598261712870032,4.5982684100914,4.5982684100914,4.598261712870032,4.598248318515083,4.598228227202128,4.598201439194517,4.598167954843374,4.598127774587575,4.5980808989537385,4.5980273285562046,4.597967064097011,4.597900106365867,4.597826456240132,4.5977461146847745,4.5976590827523385,4.597565361582911,4.597464952404073,4.5973578565308655,4.597244075365724,4.59712361039845,4.596996463206136,4.596862635453123,4.596722128890931,4.596574945358199,4.596421086780622,4.59626055517087,4.596093352628531,4.595919481340016,4.595738943578497,4.595551741703813,4.59535787816239,4.595157355487151,4.594950176297422,4.594736343298841,4.59451585928326,4.594288727128637,4.594054949798941,4.59381453034404,4.593567471899591,4.593313777686927,4.59305345101294,4.592786495269967,4.592512913935657,4.592232710572856,4.59194588882947,4.591652452438342,4.591352405217112,4.591045751068077,4.59073249397806,4.5904126380182575,4.590086187344096,4.589753146195087,4.589413518894666,4.589067309850047,4.588714523552057,4.588355164574979,4.587989237576387
4.633163191469828,4.633828272755956,4.634486985442024,4.635139321215727,4.635785271838976,4.636424829148195,4.637057985054587,4.637684731544421,4.638305060679312,4.638918964596486,4.639526435509059,4.640127465706305,4.640722047553927,4.641310173494311,4.641891836046802,4.642467027807957,4.643035741451802,4.643597969730095,4.644153705472568,4.644702941587186,4.645245671060393,4.645781886957352,4.6463115824222,4.646834750678275,4.647351385028361,4.647861478854924,4.648365025620342,4.648862018867137,4.649352452218198,4.649836319377014,4.650313614127889,4.650784330336164,4.651248461948435,4.651706002992765,4.6521569475788995,4.652601289898468,4.653039024225197,4.65347014491511,4.653894646406728,4.65431252322127,4.654723769962843,4.655128381318637,4.655526352059114,4.655917677038196,4.656302351193447,4.65668036954625,4.657051727201994,4.657416419350237,4.657774441264892,4.658125788304384,4.658470455911819,4.658808439615156,4.659139735027356,4.6594643378465435,4.659782243856165,4.660093448925133,4.660397949007983,4.660695740145009,4.660986818462415,4.66127118017245,4.661548821573546,4.661819739050448,4.662083929074351,4.6623413882030205,4.662592113080919,4.662836100439328,4.663073347096469,4.663303849957609,4.663527606015185,4.663744612348901,4.6639548661258425,4.664158364600573,4.664355105115237,4.664545085099656,4.664728302071416,4.66490475363597,4.66507443748671,4.66523735140506,4.665393493260557,4.66554286101092,4.665685452702133,4.665821266468513,4.665950300532775,4.666072553206099,4.666188022888194,4.666296708067348,4.666398607320494,4.666493719313252,4.6665820427999805,4.666663576623829,4.666738319716768,4.666806271099635,4.66686742988217,4.666921795263046,4.666969366529899,4.6670101430593505,4.667044124317042,4.667071309857636,4.667091699324849,4.6671052924514544,4.667112089059298,4.667112089059298,4.6671052924514544,4.667091699324849,4.667071309857636,4.667044124317042,4.6670101430593505,4.666969366529899,4.666921795263046,4.66686742988217,4.666806271099635,4.666738319716768,4.666663576623829,4.6665820427999805,4.666493719313252,4.666398607320494,4.666296708067348,4.666188022888194,4.666072553206099,4.665950300532775,4.665821266468513,4.665685452702133,4.66554286101092,4.665393493260557,4.66523735140506,4.66507443748671,4.66490475363597,4.664728302071416,4.664545085099656,4.664355105115237,4.664158364600573,4.6639548661258425,4.663744612348901,4.663527606015185,4.663303849957609,4.663073347096469,4.662836100439328,4.662592113080919,4.6623413882030205,4.662083929074351,4.661819739050448,4.661548821573546,4.66127118017245,4.660986818462415,4.660695740145009,4.660397949007983,4.660093448925133,4.659782243856165,4.6594643378465435,4.659139735027356,4.658808439615156,4.658470455911819,4.658125788304384,4.657774441264892,4.657416419350237,4.657051727201994,4.65668036954625
4.701497178184835,4.7021719810852165,4.702840322257445,4.703502193268778,4.70415758576177,4.704806491454564,4.705448902141172,4.706084809691759,4.706714206052927,4.707337083247987,4.707953433377242,4.708563248618256,4.709166521226127,4.709763243533756,4.710353407952113,4.710937006970499,4.711514033156815,4.7120844791578085,4.712648337699345,4.713205601586645,4.713756263704554,4.714300317017779,4.714837754571136,4.715368569489799,4.7158927549795395,4.7164103043269625,4.716921210899742,4.717425468146862,4.717923069598839,4.718414008867953,4.718898279648472,4.719375875716878,4.719846790932085,4.720311019235652,4.720768554652007,4.7212193912886455,4.721663523336355,4.722100945069409,4.722531650845774,4.722955635107313,4.723372892379978,4.723783417274011,4.724187204484129,4.724584248789719,4.72497454505502,4.725358088229312,4.725734873347088,4.7261048955282385,4.726468149978224,4.726824631988245,4.727174336935413,4.727517260282913,4.727853397580171,4.728182744463008,4.728505296653802,4.728821049961637,4.729130000282459,4.729432143599215,4.729727475982009,4.730015993588229,4.730297692662704,4.73057256953782,4.730840620633667,4.731101842458159,4.731356231607164,4.7316037847646255,4.731844498702684,4.732078370281795,4.732305396450833,4.732525574247218,4.732738900797001,4.732945373314994,4.733144989104849,4.733337745559164,4.733523640159583,4.733702670476876,4.733874834171033,4.734040128991351,4.734198552776515,4.734350103454669,4.734494779043499,4.734632577650304,4.734763497472063,4.734887536795499,4.735004693997146,4.735114967543404,4.735218355990595,4.735314857985016,4.735404472262991,4.735487197650911,4.735563033065283,4.735631977512766,4.735694030090208,4.735749189984678,4.735797456473494,4.735838828924254,4.735873306794858,4.7359008896335215,4.735921577078803,4.735935368859603,4.735942264795188,4.735942264795188,4.735935368859603,4.735921577078803,4.7359008896335215,4.735873306794858,4.735838828924254,4.735797456473494,4.735749189984678,4.735694030090208,4.735631977512766,4.735563033065283,4.735487197650911,4.735404472262991,4.735314857985016,4.735218355990595,4.735114967543404,4.735004693997146,4.734887536795499,4.734763497472063,4.734632577650304,4.734494779043499,4.734350103454669,4.734198552776515,4.734040128991351,4.733874834171033,4.733702670476876,4.733523640159583,4.733337745559164,4.733144989104849,4.732945373314994,4.732738900797001,4.732525574247218,4.732305396450833,4.732078370281795,4.731844498702684,4.7316037847646255,4.731356231607164,4.731101842458159,4.730840620633667,4.73057256953782,4.730297692662704,4.730015993588229,4.729727475982009,4.729432143599215,4.729130000282459,4.728821049961637,4.728505296653802,4.728182744463008,4.727853397580171,4.727517260282913,4.727174336935413,4.726824631988245,4.726468149978224,4.7261048955282385,4.725734873347088,4.725358088229312
4.769817762415375,4.770502281184192,4.771180245150173,4.771851645760259,4.772516474537766,4.773174723082672,4.773826383071911,4.774471446259659,4.775109904477617,4.775741749635296,4.776366973720292,4.776985568798574,4.777597527014743,4.7782028405923205,4.778801501834009,4.7793935031219625,4.779978836918053,4.780557495764132,4.781129472282289,4.781694759175115,4.7822533492259485,4.782805235299137,4.783350410340285,4.783888867376492,4.7844205995166105,4.784945599951482,4.785463861954175,4.785975378880223,4.78648014416786,4.786978151338251,4.787469393995718,4.78795386582797,4.788431560606325,4.788902472185926,4.789366594505964,4.7898239215898935,4.790274447545636,4.7907181665657985,4.791155072927875,4.791585160994449,4.7920084252134005,4.792424860118092,4.792834460327576,4.793237220546778,4.793633135566687,4.794022200264546,4.794404409604028,4.794779758635423,4.7951482424958085,4.795509856409228,4.79586459568686,4.796212455727185,4.796553432016156,4.796887520127352,4.797214715722145,4.797535014549849,4.797848412447876,4.79815490534189,4.798454489245942,4.798747160262626,4.799032914583211,4.799311748487781,4.79958365834537,4.799848640614093,4.80010669184127,4.800357808663555,4.800601987807058,4.800839226087454,4.801069520410115,4.801292867770203,4.801509265252795,4.801718710032976,4.80192119937595,4.802116730637129,4.802305301262247,4.8024869087874285,4.802661550839297,4.802829225135055,4.8029899294825595,4.803143661780413,4.803290420018035,4.803430202275731,4.8035630067247705,4.8036888316274435,4.803807675337135,4.8039195362983715,4.804024413046891,4.804122304209686,4.804213208505061,4.804297124742671,4.804374051823572,4.8044439887402595,4.804506934576699,4.804562888508368,4.8046118498022805,4.804653817817018,4.8046887920027475,4.8047167719012425,4.804737757145908,4.804751747461778,4.804758742665543,4.804758742665543,4.804751747461778,4.804737757145908,4.8047167719012425,4.8046887920027475,4.804653817817018,4.8046118498022805,4.804562888508368,4.804506934576699,4.8044439887402595,4.804374051823572,4.804297124742671,4.804213208505061,4.804122304209686,4.804024413046891,4.8039195362983715,4.803807675337135,4.8036888316274435,4.8035630067247705,4.803430202275731,4.803290420018035,4.803143661780413,4.8029899294825595,4.802829225135055,4.802661550839297,4.8024869087874285,4.802305301262247,4.802116730637129,4.80192119937595,4.801718710032976,4.801509265252795,4.801292867770203,4.801069520410115,4.800839226087454,4.800601987807058,4.800357808663555,4.80010669184127,4.799848640614093,4.79958365834537,4.799311748487781,4.799032914583211,4.798747160262626,4.798454489245942,4.79815490534189,4.797848412447876,4.797535014549849,4.797214715722145,4.796887520127352,4.796553432016156,4.796212455727185,4.79586459568686,4.795509856409228,4.7951482424958085,4.794779758635423,4.794404409604028,4.794022200264546
4.838124753876667,4.83881898268806,4.839506563676093,4.840187488167512,4.840861747566505,4.841529333355009,4.842190237092998,4.84284445041877,4.843491965049243,4.84413277278024,4.844766865486766,4.845394235123297,4.846014873724058,4.8466287734032925,4.847235926355547,4.847836324855936,4.848429961260409,4.849016828006024,4.849596917611204,4.850170222676003,4.850736735882365,4.851296449994376,4.85184935785852,4.852395452403929,4.852934726642635,4.853467173669808,4.853992786664004,4.854511558887404,4.855023483686052,4.855528554490089,4.85602676481398,4.8565181082567515,4.857002578502214,4.857480169319179,4.857950874561694,4.858414688169245,4.85887160416698,4.85932161666592,4.859764719863167,4.860200908042105,4.860630175572619,4.861052516911275,4.861467926601531,4.861876399273928,4.862277929646283,4.86267251252387,4.863060142799619,4.8634408154542825,4.863814525556629,4.864181268263611,4.8645410388205415,4.864893832561264,4.865239644908319,4.86557847137311,4.865910307556062,4.86623514914678,4.866552991924207,4.866863831756771,4.867167664602539,4.867464486509355,4.867754293614989,4.868037082147275,4.868312848424245,4.868581588854261,4.868843299936148,4.869097978259316,4.869345620503888,4.869586223440818,4.869819783932001,4.8700462989304,4.870265765480147,4.870478180716647,4.8706835418666925,4.870881846248554,4.871073091272081,4.871257274438799,4.871434393341991,4.871604445666795,4.871767429190282,4.871923341781537,4.872072181401742,4.872213946104236,4.872348634034606,4.872476243430734,4.8725967726228765,4.872710220033715,4.872816584178422,4.872915863664702,4.873008057192861,4.8730931635558346,4.873171181639243,4.87324211042143,4.873305948973498,4.873362696459343,4.873412352135685,4.873454915352093,4.873490385551014,4.873518762267788,4.873540045130666,4.873554233860825,4.873561328272378,4.873561328272378,4.873554233860825,4.873540045130666,4.873518762267788,4.873490385551014,4.873454915352093,4.873412352135685,4.873362696459343,4.873305948973498,4.87324211042143,4.873171181639243,4.8730931635558346,4.873008057192861,4.872915863664702,4.872816584178422,4.872710220033715,4.8725967726228765,4.872476243430734,4.872348634034606,4.872213946104236,4.872072181401742,4.871923341781537,4.871767429190282,4.871604445666795,4.871434393341991,4.871257274438799,4.871073091272081,4.870881846248554,4.8706835418666925,4.870478180716647,4.870265765480147,4.8700462989304,4.869819783932001,4.869586223440818,4.869345620503888,4.869097978259316,4.868843299936148,4.868581588854261,4.868312848424245,4.868037082147275,4.867754293614989,4.867464486509355,4.867167664602539,4.866863831756771,4.866552991924207,4.86623514914678,4.865910307556062,4.86557847137311,4.865239644908319,4.864893832561264,4.8645410388205415,4.864181268263611,4.863814525556629,4.8634408154542825,4.863060142799619,4.86267251252387
4.906417962514196,4.907121895462429,4.907819087621681,4.908509530198622,4.909193214478436,4.909870131825136,4.910540273681851,4.911203631571122,4.9118601970952005,4.9125099619363315,4.913152917857046,4.913789056700444,4.914418370390477,4.915040850932232,4.915656490412203,4.916265280998572,4.916867214941479,4.917462284573289,4.918050482308868,4.918631800645838,4.919206232164846,4.9197737695298205,4.920334405488232,4.9208881328713385,4.92143494459445,4.921974833657163,4.922507793143621,4.923033816222745,4.9235528961484825,4.924065026260041,4.924570199982125,4.925068410825165,4.925559652385556,4.9260439183458695,4.926521202475086,4.926991498628819,4.927454800749524,4.927911102866718,4.928360399097192,4.928802683645221,4.929237950802763,4.929666194949671,4.930087410553887,4.9305015921716455,4.930908734447659,4.931308832115315,4.931701879996864,4.9320878730036,4.93246680613605,4.932838674484145,4.933203473227401,4.933561197635086,4.933911843066399,4.934255404970627,4.934591878887313,4.9349212604464165,4.935243545368466,4.935558729464719,4.93586680863731,4.936167778879392,4.936461636275295,4.936748377000652,4.937027997322543,4.937300493599635,4.937565862282302,4.937824099912763,4.938075203125201,4.9383191686458865,4.938555993293298,4.938785673978232,4.9390082077039175,4.939223591566128,4.939431822753277,4.93963289854653,4.939826816319899,4.940013573540334,4.940193167767823,4.940365596655468,4.940530857949582,4.940688949489771,4.940839869208998,4.940983615133675,4.941120185383724,4.941249578172648,4.941371791807601,4.941486824689438,4.9415946753127855,4.9416953422660885,4.941788824231664,4.941875119985749,4.941954228398546,4.942026148434262,4.942090879151144,4.942148419701522,4.942198769331832,4.942241927382644,4.942277893288688,4.942306666578875,4.942328246876315,4.942342633898324,4.942349827456444,4.942349827456444,4.942342633898324,4.942328246876315,4.942306666578875,4.942277893288688,4.942241927382644,4.942198769331832,4.942148419701522,4.942090879151144,4.942026148434262,4.941954228398546,4.941875119985749,4.941788824231664,4.9416953422660885,4.9415946753127855,4.941486824689438,4.941371791807601,4.941249578172648,4.941120185383724,4.940983615133675,4.940839869208998,4.940688949489771,4.940530857949582,4.940365596655468,4.940193167767823,4.940013573540334,4.939826816319899,4.93963289854653,4.939431822753277,4.939223591566128,4.9390082077039175,4.938785673978232,4.938555993293298,4.9383191686458865,4.938075203125201,4.937824099912763,4.937565862282302,4.937300493599635,4.937027997322543,4.936748377000652,4.936461636275295,4.936167778879392,4.93586680863731,4.935558729464719,4.935243545368466,4.9349212604464165,4.934591878887313,4.934255404970627,4.933911843066399,4.933561197635086,4.933203473227401,4.932838674484145,4.93246680613605,4.9320878730036,4.931701879996864,4.931308832115315
4.974697198506779,4.97541082960641,4.976117627007085,4.9768175817955145,4.977510685138006,4.978196928280767,4.978876302550203,4.979548799353216,4.980214410177506,4.980873126591861,4.981524940246452,4.982169842873114,4.9828078262856454,4.9834388823800815,4.984063003134978,4.984680180611696,4.98529040695467,4.985893674391688,4.986489975234156,4.987079301877377,4.987661646800802,4.98823700256831,4.988805361828451,4.989366717314718,4.989921061845793,4.990468388325805,4.991008689744576,4.991541959177866,4.99206818978762,4.992587374822209,4.993099507616668,4.993604581592924,4.994102590260045,4.99459352721445,4.995077386140149,4.995554160808963,4.996023845080742,4.996486432903585,4.996941918314056,4.997390295437396,4.997831558487725,4.998265701768261,4.998692719671509,4.9991126066794696,4.999525357363831,4.9999309663861675,5.000329428498126,5.000720738541612,5.001104891448982,5.001481882243214,5.001851706038095,5.00221435803839,5.0025698335400195,5.002918127930217,5.003259236687711,5.0035931553828705,5.003919879677878,5.004239405326878,5.004551728176127,5.004856844164152,5.005154749321889,5.005445439772829,5.005728911733158,5.006005161511891,5.0062741855110096,5.006535980225584,5.006790542243911,5.0070378682476235,5.007277955011824,5.007510799405189,5.007736398390091,5.0079547490227085,5.00816584845312,5.008369693925424,5.008566282777829,5.008755612442752,5.00893768044691,5.009112484411414,5.00928002205185,5.009440291178366,5.009593289695748,5.0097390156034995,5.00987746699591,5.010008642062128,5.010132539086224,5.010249156447257,5.010358492619327,5.010460546171637,5.010555315768537,5.010642800169581,5.010722998229569,5.010795908898584,5.010861531222039,5.010919864340705,5.010970907490743,5.011014660003735,5.011051121306705,5.01108029092214,5.01110216846801,5.011116753657783,5.011124046300427,5.011124046300427,5.011116753657783,5.01110216846801,5.01108029092214,5.011051121306705,5.011014660003735,5.010970907490743,5.010919864340705,5.010861531222039,5.010795908898584,5.010722998229569,5.010642800169581,5.010555315768537,5.010460546171637,5.010358492619327,5.010249156447257,5.010132539086224,5.010008642062128,5.00987746699591,5.0097390156034995,5.009593289695748,5.009440291178366,5.00928002205185,5.009112484411414,5.00893768044691,5.008755612442752,5.008566282777829,5.008369693925424,5.00816584845312,5.0079547490227085,5.007736398390091,5.007510799405189,5.007277955011824,5.0070378682476235,5.006790542243911,5.006535980225584,5.0062741855110096,5.006005161511891,5.005728911733158,5.005445439772829,5.005154749321889,5.004856844164152,5.004551728176127,5.004239405326878,5.003919879677878,5.0035931553828705,5.003259236687711,5.002918127930217,5.0025698335400195,5.00221435803839,5.001851706038095,5.001481882243214,5.001104891448982,5.000720738541612,5.000329428498126,4.9999309663861675
5.042962272269651,5.043685595455698,5.044401992089194,5.0451114531370225,5.0458139696467335,5.046509532746852,5.047198133647181,5.047879763639105,5.048554414095891,5.049222076472989,5.049882742308323,5.050536403222584,5.05118305091953,5.051822677186255,5.0524552738934965,5.0530808329959,5.053699346532307,5.0543108066260345,5.054915205485145,5.055512535402718,5.056102788757123,5.056685958012287,5.057262035717953,5.057831014509942,5.058392887110417,5.058947646328131,5.059495285058689,5.060035796284786,5.060569173076462,5.061095408591346,5.061614496074895,5.0621264288606325,5.062631200370384,5.063128804114511,5.063619233692139,5.064102482791385,5.064578545189581,5.065047414753496,5.065509085439549,5.065963551294031,5.066410806453309,5.066850845144038,5.067283661683373,5.067709250479156,5.06812760603013,5.06853872292613,5.068942595848272,5.069339219569151,5.069728588953019,5.070110698955979,5.070485544626155,5.070853121103876,5.071213423621848,5.071566447505322,5.0719121881722735,5.072250641133548,5.072581801993039,5.072905666447836,5.073222230288386,5.073531489398637,5.0738334397561955,5.074128077432464,5.074415398592785,5.074695399496578,5.07496807649748,5.075233426043467,5.075491444676992,5.075742129035103,5.075985475849569,5.076221481946995,5.076450144248938,5.076671459772019,5.0768854256280305,5.077092039024039,5.077291297262486,5.077483197741294,5.077667737953948,5.077844915489596,5.078014728033129,5.078177173365276,5.078332249362667,5.07847995399793,5.07862028533975,5.0787532415529455,5.078878820898531,5.0789970217337865,5.079107842512312,5.079211281784085,5.079307338195511,5.079396010489479,5.079477297505401,5.079551198179255,5.0796177115436265,5.079676836727744,5.0797285729575075,5.079772919555515,5.079809875941093,5.079839441630313,5.079861616236016,5.079876399467815,5.079883791132113,5.079883791132113,5.079876399467815,5.079861616236016,5.079839441630313,5.079809875941093,5.079772919555515,5.0797285729575075,5.079676836727744,5.0796177115436265,5.079551198179255,5.079477297505401,5.079396010489479,5.079307338195511,5.079211281784085,5.079107842512312,5.0789970217337865,5.078878820898531,5.0787532415529455,5.07862028533975,5.07847995399793,5.078332249362667,5.078177173365276,5.078014728033129,5.077844915489596,5.077667737953948,5.077483197741294,5.077291297262486,5.077092039024039,5.0768854256280305,5.076671459772019,5.076450144248938,5.076221481946995,5.075985475849569,5.075742129035103,5.075491444676992,5.075233426043467,5.07496807649748,5.074695399496578,5.074415398592785,5.074128077432464,5.0738334397561955,5.073531489398637,5.073222230288386,5.072905666447836,5.072581801993039,5.072250641133548,5.0719121881722735,5.071566447505322,5.071213423621848,5.070853121103876,5.070485544626155,5.070110698955979,5.069728588953019,5.069339219569151,5.068942595848272,5.06853872292613
5.111212994457517,5.111946003585623,5.1126719933647085,5.113390954641955,5.114102878346278,5.114807755488646,5.11550557716238,5.11619633454347,5.116880018890873,5.117556621546817,5.1182261339371,5.118888547571386,5.119543854043504,5.12019204503173,5.12083311229909,5.121467047693631,5.122093843148714,5.122713490683294,5.1233259824021955,5.12393131049639,5.124529467243271,5.125120445006916,5.125704236238365,5.126280833475875,5.12685022934519,5.1274124165597925,5.127967387921163,5.128515136319034,5.1290556547316415,5.129588936225965,5.130114973957982,5.1306337611729,5.131145291205402,5.131649557479881,5.132146553510669,5.132636272902269,5.133118709349582,5.133593856638131,5.13406170864428,5.1345222593354505,5.13497550277034,5.135421433099128,5.135860044563691,5.1362913314978,5.136715288327325,5.1371319095704395,5.137541189837807,5.137943123832781,5.1383377063515905,5.138724932283524,5.139104796611118,5.139477294410335,5.1398424208507345,5.140200171195654,5.140550540802373,5.140893525122283,5.14122911970105,5.141557320178773,5.141878122290143,5.142191521864593,5.142497514826453,5.142796097195095,5.143087265085072,5.143371014706263,5.14364734236401,5.143916244459246,5.14417771748863,5.144431758044673,5.144678362815858,5.1449175285867605,5.14514925223817,5.145373530747191,5.1455903611873675,5.145799740728775,5.146001666638136,5.146196136278903,5.1463831471113695,5.1465626966927545,5.146734782677291,5.146899402816312,5.147056554958333,5.147206237049127,5.147348447131805,5.147483183346878,5.147610443932336,5.1477302272236996,5.14784253165409,5.147947355754283,5.148044698152758,5.148134557575753,5.148216932847313,5.148291822889325,5.148359226721563,5.148419143461721,5.148471572325449,5.148516512626374,5.148553963776133,5.148583925284392,5.148606396758859,5.148621377905302,5.148628868527565,5.148628868527565,5.148621377905302,5.148606396758859,5.148583925284392,5.148553963776133,5.148516512626374,5.148471572325449,5.148419143461721,5.148359226721563,5.148291822889325,5.148216932847313,5.148134557575753,5.148044698152758,5.147947355754283,5.14784253165409,5.1477302272236996,5.147610443932336,5.147483183346878,5.147348447131805,5.147206237049127,5.147056554958333,5.146899402816312,5.146734782677291,5.1465626966927545,5.1463831471113695,5.146196136278903,5.146001666638136,5.145799740728775,5.1455903611873675,5.145373530747191,5.14514925223817,5.1449175285867605,5.144678362815858,5.144431758044673,5.14417771748863,5.143916244459246,5.14364734236401,5.143371014706263,5.143087265085072,5.142796097195095,5.142497514826453,5.142191521864593,5.141878122290143,5.141557320178773,5.14122911970105,5.140893525122283,5.140550540802373,5.140200171195654,5.1398424208507345,5.139477294410335,5.139104796611118,5.138724932283524,5.1383377063515905,5.137943123832781,5.137541189837807,5.1371319095704395
5.179449175967594,5.180191864814208,5.180927441573189,5.181655896972148,5.182377221821495,5.183091407014765,5.183798443528924,5.184498322424686,5.185191034846822,5.185876572024459,5.186554925271391,5.187226085986372,5.187890045653423,5.1885467958421145,5.189196328207879,5.1898386344922764,5.190473706523302,5.191101536215661,5.191722115571052,5.192335436678446,5.192941491714366,5.193540272943157,5.194131772717253,5.194715983477458,5.195292897753196,5.19586250816278,5.196424807413676,5.19697978830275,5.197527443716528,5.1980677666314445,5.198600750114088,5.199126387321452,5.199644671501168,5.200155595991751,5.200659154222832,5.201155339715391,5.20164414608199,5.20212556702699,5.202599596346786,5.20306622793002,5.2035254557578,5.203977273903915,5.204421676535042,5.20485865791096,5.205288212384752,5.205710334403002,5.206125018505999,5.20653225932793,5.20693205159707,5.207324390135975,5.20770926986166,5.208086685785789,5.208456633014847,5.20881910675032,5.209174102288865,5.209521615022481,5.209861640438667,5.210194174120595,5.21051921174726,5.210836749093644,5.211146782030854,5.211449306526286,5.211744318643765,5.212031814543678,5.2123117904831275,5.212584242816053,5.212849167993373,5.213106562563105,5.213356423170494,5.213598746558136,5.21383352956609,5.214060769131995,5.214280462291185,5.214492606176788,5.214697198019835,5.21489423514936,5.2150837149924945,5.215265635074565,5.215439993019176,5.215606786548303,5.215766013482371,5.215917671740335,5.216061759339751,5.2161982743968585,5.21632721512664,5.216448579842883,5.2165623669582555,5.216668574984347,5.216767202531733,5.216858248310024,5.216941711127906,5.217017589893195,5.2170858836128655,5.217146591393092,5.2171997124392835,5.21724524605611,5.217283191647523,5.217313548716787,5.21733631686649,5.217351495798558,5.217359085314274,5.217359085314274,5.217351495798558,5.21733631686649,5.217313548716787,5.217283191647523,5.21724524605611,5.2171997124392835,5.217146591393092,5.2170858836128655,5.217017589893195,5.216941711127906,5.216858248310024,5.216767202531733,5.216668574984347,5.2165623669582555,5.216448579842883,5.21632721512664,5.2161982743968585,5.216061759339751,5.215917671740335,5.215766013482371,5.215606786548303,5.215439993019176,5.215265635074565,5.2150837149924945,5.21489423514936,5.214697198019835,5.214492606176788,5.214280462291185,5.214060769131995,5.21383352956609,5.213598746558136,5.213356423170494,5.213106562563105,5.212849167993373,5.212584242816053,5.2123117904831275,5.212031814543678,5.211744318643765,5.211449306526286,5.211146782030854,5.210836749093644,5.21051921174726,5.210194174120595,5.209861640438667,5.209521615022481,5.209174102288865,5.20881910675032,5.208456633014847,5.208086685785789,5.20770926986166,5.207324390135975,5.20693205159707,5.20653225932793,5.206125018505999,5.205710334403002
5.2476706279426635,5.248422990205202,5.249168147700101,5.249906091035518,5.250636810903488,5.251360298080239,5.25207654342651,5.252785537887867,5.253487272495012,5.254181738364099,5.254868926697036,5.255548828781788,5.2562214359926855,5.256886739790717,5.257544731723831,5.258195403427223,5.258838746623635,5.259474753123632,5.2601034148259025,5.260724723717529,5.261338671874272,5.261945251460849,5.262544454731207,5.2631362740287875,5.26372070178681,5.264297730528523,5.264867352867474,5.2654295615077675,5.265984349244319,5.266531708963116,5.26707163364146,5.267604116348219,5.268129150244075,5.268646728581757,5.269156844706289,5.2696594920552196,5.270154664158856,5.270642354640493,5.271122557216642,5.271595265697251,5.272060473985925,5.272518176080141,5.272968366071471,5.273411038145774,5.273846186583425,5.274273805759501,5.2746938901439915,5.275106434301995,5.275511432893909,5.275908880675624,5.276298772498711,5.2766811033106045,5.277055868154784,5.277423062170954,5.277782680595214,5.278134718760233,5.278479172095414,5.278816036127058,5.279145306478533,5.279466978870419,5.279781049120667,5.280087513144757,5.280386366955831,5.28067760666485,5.280961228480721,5.281237228710448,5.281505603759255,5.2817663501307175,5.2820194644268925,5.282264943348439,5.282502783694733,5.28273298236399,5.282955536353377,5.283170442759113,5.283377698776582,5.283577301700432,5.283769248924674,5.283953537942772,5.284130166347743,5.28429913183223,5.284460432188603,5.284614065309024,5.284760029185532,5.284898321910112,5.285028941674767,5.2851518867715805,5.285267155592782,5.285374746630803,5.285474658478331,5.285566889828365,5.2856514394742575,5.285728306309759,5.285797489329065,5.285858987626843,5.285912800398272,5.285958926939069,5.285997366645517,5.286028119014482,5.286051183643436,5.286066560230471,5.286074248574311,5.286074248574311,5.286066560230471,5.286051183643436,5.286028119014482,5.285997366645517,5.285958926939069,5.285912800398272,5.285858987626843,5.285797489329065,5.285728306309759,5.2856514394742575,5.285566889828365,5.285474658478331,5.285374746630803,5.285267155592782,5.2851518867715805,5.285028941674767,5.284898321910112,5.284760029185532,5.284614065309024,5.284460432188603,5.28429913183223,5.284130166347743,5.283953537942772,5.283769248924674,5.283577301700432,5.283377698776582,5.283170442759113,5.282955536353377,5.28273298236399,5.282502783694733,5.282264943348439,5.2820194644268925,5.2817663501307175,5.281505603759255,5.281237228710448,5.280961228480721,5.28067760666485,5.280386366955831,5.280087513144757,5.279781049120667,5.279466978870419,5.279145306478533,5.278816036127058,5.278479172095414,5.278134718760233,5.277782680595214,5.277423062170954,5.277055868154784,5.2766811033106045,5.276298772498711,5.275908880675624,5.275511432893909,5.275106434301995,5.2746938901439915,5.274273805759501
5.315877161774085,5.316639191071124,5.317393922979843,5.318141347989085,5.318881456672638,5.319614239689551,5.320339687784462,5.321057791787914,5.321768542616671,5.322471931274033,5.3231679488501475,5.323856586522311,5.324537835555286,5.3252116873015956,5.325878133201824,5.326537164784921,5.327188773668485,5.327832951559067,5.328469690252451,5.329098981633941,5.329720817678654,5.330335190451785,5.330942092108898,5.331541514896193,5.3321334511507805,5.332717893300952,5.33329483386644,5.3338642654586925,5.334426180781115,5.334980572629347,5.335527433891502,5.336066757548424,5.336598536673935,5.337122764435078,5.337639434092363,5.338148538999998,5.338650072606129,5.339144028453073,5.339630400177549,5.340109181510896,5.340580366279301,5.341043948404019,5.341499921901591,5.341948280884049,5.342389019559135,5.3428221322304985,5.343247613297912,5.343665457257457,5.3440756587017315,5.344478212320038,5.344873112898568,5.345260355320607,5.345639934566695,5.346011845714824,5.346376083940604,5.346732644517441,5.347081522816703,5.347422714307892,5.3477562145588005,5.348082019235675,5.348400124103367,5.3487105250254965,5.349013217964584,5.3493081989822135,5.349595464239158,5.349875009995534,5.350146832610922,5.350410928544508,5.350667294355206,5.3509159267017825,5.3511568223429835,5.3513899781376395,5.351615391044795,5.3518330581238,5.352042976534434,5.352245143536997,5.3524395564924125,5.352626212862326,5.35280511020919,5.35297624619636,5.353139618588173,5.353295225250034,5.353443064148488,5.353583133351296,5.353715431027509,5.353839955447526,5.353956704983167,5.354065678107722,5.3541668733960135,5.354260289524445,5.354345925271053,5.354423779515543,5.35449385123934,5.354556139525618,5.35461064355934,5.354657362627282,5.354696296118061,5.354727443522156,5.354750804431931,5.354766378541642,5.354774165647457,5.354774165647457,5.354766378541642,5.354750804431931,5.354727443522156,5.354696296118061,5.354657362627282,5.35461064355934,5.354556139525618,5.35449385123934,5.354423779515543,5.354345925271053,5.354260289524445,5.3541668733960135,5.354065678107722,5.353956704983167,5.353839955447526,5.353715431027509,5.353583133351296,5.353443064148488,5.353295225250034,5.353139618588173,5.35297624619636,5.35280511020919,5.352626212862326,5.3524395564924125,5.352245143536997,5.352042976534434,5.3518330581238,5.351615391044795,5.3513899781376395,5.3511568223429835,5.3509159267017825,5.350667294355206,5.350410928544508,5.350146832610922,5.349875009995534,5.349595464239158,5.3493081989822135,5.349013217964584,5.3487105250254965,5.348400124103367,5.348082019235675,5.3477562145588005,5.347422714307892,5.347081522816703,5.346732644517441,5.346376083940604,5.346011845714824,5.345639934566695,5.345260355320607,5.344873112898568,5.344478212320038,5.3440756587017315,5.343665457257457,5.343247613297912,5.3428221322304985
